# .PCD v0.7 - Point Cloud Data file format
VERSION 0.7
FIELDS x y z
SIZE 4 4 4
TYPE F F F
COUNT 1 1 1
WIDTH 1560
HEIGHT 1
VIEWPOINT 0 0 0 1 0 0 0
POINTS 1560
DATA ascii
2.782856 0.088133 0.617082
3.091114 0.22113299 0.60722703
3.1094079 0.217015 0.60993499
3.112519 0.234667 0.61518502
3.1286769 0.240035 0.61993098
2.8530791 0.256704 0.60945302
2.9175291 0.26035401 0.60818702
2.867548 0.26311401 0.613406
2.9367919 0.27069199 0.618976
2.86887 0.28189099 0.61781299
2.954411 0.28011 0.60575002
2.9680679 0.29349101 0.609824
3.126235 0.303359 0.61276501
3.156112 0.30334401 0.61631298
3.1669259 0.29322901 0.61822098
2.9807611 0.30895001 0.61420399
3.0136991 0.30823699 0.61763299
3.1589961 0.31419599 0.61707598
3.139699 0.32916901 0.61364198
3.124249 0.34436899 0.61097002
3.108809 0.35860199 0.60829902
3.10501 0.37409699 0.60791701
3.0348411 0.395634 0.60738301
3.0665281 0.39659199 0.61117399
3.1439841 0.401943 0.61313701
3.0794511 0.41260099 0.61583501
3.0960259 0.60940498 0.60671097
3.082514 0.63097101 0.61044103
3.062809 0.662521 0.61590701
3.0739739 1.0515521 0.60758901
-1.9977731 1.06134 0.60615402
2.8744991 1.0619529 0.60901701
3.0571051 1.063307 0.608863
-2.008347 1.0804811 0.611072
3.0456719 1.076519 0.61193299
2.854409 1.095228 0.61616999
3.04127 1.0923361 0.61762202
-2.0289609 1.105307 0.61909503
2.900794 1.12949 0.60856301
2.8781409 1.1331199 0.60719001
2.8786371 1.164341 0.609303
2.8592589 1.205179 0.61827803
2.849854 1.299045 0.61028397
-2.3085711 1.337222 0.605685
2.838131 1.3257 0.61524498
-2.336755 1.349493 0.607876
-2.315393 1.3501641 0.60719001
-2.337343 1.361812 0.60912502
-2.2450459 1.356437 0.60556799
-2.3336849 1.384307 0.61124903
-2.2685919 1.381496 0.613217
2.7389541 1.3764859 0.60739702
-2.3655441 1.398436 0.613895
-2.3535819 1.391207 0.61269599
-2.286207 1.408693 0.61996502
2.716234 1.403375 0.61336201
2.8685341 1.415588 0.60917097
-2.386229 1.424629 0.61743897
-2.3655169 1.41635 0.61574501
2.714124 1.419554 0.61824101
-2.4000461 1.431286 0.618707
2.8487539 1.441094 0.61367297
2.815043 1.471779 0.60667902
2.8253579 1.468425 0.61823303
2.7974169 1.481524 0.60768503
2.7778931 1.496195 0.61042899
2.7807341 1.51547 0.61897898
2.702136 1.559751 0.61094499
2.6856689 1.590081 0.61636502
2.625349 1.634089 0.60654199
2.6084509 1.650687 0.61064202
2.6030309 1.665645 0.615058
2.598778 1.680124 0.61939901
2.5377901 1.8075171 0.60562801
-0.881028 1.83268 0.60765499
0.62212998 1.824072 0.60690999
-0.87141901 1.847298 0.610322
0.55931902 1.864152 0.60550201
0.571163 1.854442 0.60535699
2.488961 1.858384 0.60647601
2.5114911 1.85392 0.60615599
-0.86614501 1.871592 0.61393499
2.4993329 1.871704 0.60883999
2.5072501 1.870364 0.61098599
2.5568089 1.867924 0.60706198
-0.84806502 1.884557 0.61707801
0.52281803 1.895319 0.60652798
0.53240198 1.88376 0.60571402
2.4810309 1.894439 0.61778003
2.495997 1.889835 0.61355001
2.5585389 1.888683 0.61568701
-0.843198 1.905213 0.62020099
0.486691 1.908762 0.605524
0.51414001 1.8974659 0.60609502
2.485297 1.904969 0.60868102
2.538646 1.9015861 0.61823303
0.45953301 1.9243931 0.605865
0.47131699 1.917173 0.60562003
0.496209 1.91877 0.60779703
2.4577429 1.918124 0.60600901
2.4755239 1.911234 0.60791701
0.42555401 1.938817 0.605793
0.44255099 1.9353009 0.60638899
0.40144101 1.948357 0.60579902
0.41743401 1.948611 0.606875
0.441917 1.9493459 0.60862499
2.4520121 1.947626 0.60868102
2.461539 1.9419169 0.60944402
0.362872 1.96299 0.605968
0.38164601 1.965432 0.60751402
0.40808299 1.961154 0.60838699
2.438699 1.96427 0.60868102
2.4578071 1.965554 0.61173397
0.35148001 1.975752 0.60758603
0.368725 1.980955 0.60948902
0.38377601 1.976292 0.60953099
2.4283719 1.977015 0.60868102
2.5384359 1.977066 0.60739398
0.32647899 1.992227 0.609236
0.33406499 1.995066 0.61016202
0.34819999 1.986302 0.60931098
0.36001799 1.998615 0.612198
2.4304719 1.999256 0.61173397
-0.82859898 2.0107889 0.60832202
0.31110799 2.008095 0.61142898
0.33033001 2.0102329 0.61279899
0.34456 2.0081551 0.61313599
2.413929 2.0069311 0.61020702
2.507864 2.0014751 0.611678
2.528373 2.003114 0.61389703
-0.822694 2.029845 0.61156702
0.28588301 2.0270531 0.61387998
0.30232999 2.0226541 0.61379802
0.32021299 2.0241361 0.61494303
2.4063971 2.0220721 0.61097002
2.510643 2.02214 0.617755
-0.69490802 2.031852 0.60940802
0.27564999 2.0361021 0.615201
0.29354101 2.0389841 0.61658299
2.4023211 2.0329959 0.61173397
-0.82141501 2.0479529 0.61424202
-0.80570799 2.046433 0.615547
-0.67923599 2.059211 0.61247897
-0.67455 2.0597961 0.612867
-0.65101099 2.0566659 0.614443
0.25183699 2.055928 0.618164
0.26635599 2.0482471 0.617221
0.27412099 2.049875 0.61789501
2.404175 2.04901 0.61402297
2.426976 2.048347 0.60671699
2.4397709 2.051295 0.60758603
-0.80034101 2.0643439 0.61860198
-0.66528797 2.068351 0.61415797
0.202683 2.0752399 0.62020397
0.244747 2.0670371 0.62016201
2.3822889 2.065429 0.61287898
2.3930449 2.0672669 0.612773
2.408926 2.06762 0.61707598
2.421443 2.0724771 0.61426401
-0.65255898 2.08108 0.616009
-0.635014 2.089319 0.61794001
2.3849199 2.0893099 0.61631298
2.3991499 2.0838339 0.61788702
0.22676501 2.100842 0.61170501
0.25171101 2.0944729 0.61487699
0.264667 2.09238 0.61675203
0.272618 2.0953619 0.61866403
0.284468 2.0914481 0.62003601
0.210072 2.1175079 0.61178201
0.23530699 2.1089439 0.61460501
2.3890131 2.114363 0.62012899
0.19485401 2.1262391 0.61072201
2.3712709 2.1283669 0.61936599
0.131015 2.1476059 0.60575199
0.16195901 2.150501 0.609402
0.1726 2.1408041 0.60949999
2.320642 2.1489401 0.61478698
2.3539081 2.1358919 0.61783999
0.125392 2.159652 0.607548
0.141287 2.158051 0.60783601
2.289465 2.1507051 0.61058903
2.307008 2.1520741 0.61325997
2.348361 2.15943 0.62012899
2.435441 2.1533489 0.60791701
0.077673003 2.1785779 0.60968798
0.096435003 2.1792331 0.60947597
0.109375 2.171221 0.60745502
2.284837 2.172019 0.61278301
2.4415281 2.166312 0.61141503
0.082750998 2.1890371 0.61010802
2.265245 2.187521 0.61211503
2.448204 2.1806631 0.61528403
-0.63744199 2.20574 0.606767
0.039957002 2.2067931 0.61422402
0.057167001 2.2006481 0.61381698
0.061733 2.205231 0.60650599
0.073418997 2.196578 0.613877
0.088149004 2.197104 0.61498803
2.2712829 2.2095001 0.61593097
-0.63784403 2.22121 0.60938603
0.0072329999 2.222935 0.61616403
0.02451 2.2151361 0.61531699
0.036185998 2.217654 0.61672401
0.050671 2.2153871 0.61710799
2.2677641 2.221535 0.61707598
2.337008 2.2216499 0.60654098
2.4195139 2.2211361 0.60840702
-0.72230703 2.2318909 0.60613602
-0.63289797 2.235043 0.612158
-0.618325 2.2360599 0.61351597
0.012355 2.237061 0.62012303
0.017192001 2.230813 0.61883402
2.261394 2.2308159 0.61745799
2.33126 2.236212 0.611076
2.348567 2.2276621 0.60781503
2.401659 2.238616 0.61171901
-0.0093750004 2.2424929 0.62010199
2.1903319 2.2515831 0.61058903
2.2637351 2.247987 0.62012899
2.3152101 2.2488871 0.61547202
2.386879 2.2525849 0.61192799
2.3994801 2.2516639 0.61647397
2.4292631 2.2411611 0.614429
-0.61256099 2.2572899 0.617643
2.17939 2.2635341 0.61078
2.244231 2.2591641 0.61898398
2.377774 2.2627649 0.618496
2.4384539 2.2602091 0.62015802
2.2325261 2.278985 0.62012899
2.401397 2.274745 0.61227602
-0.53340501 2.2985671 0.60584402
-0.52452701 2.313736 0.60821801
2.19137 2.306407 0.61841202
-0.51580203 2.3289659 0.61058801
-0.18057901 2.3285861 0.61926699
-0.65379101 2.3395481 0.610048
-0.50880498 2.337491 0.61212099
-0.19058099 2.340775 0.61940002
-0.498622 2.353457 0.61471599
-0.227706 2.3564169 0.61606401
-0.208129 2.3546989 0.61866802
-0.48754701 2.3672371 0.61719
-0.25922501 2.3689101 0.613271
-0.24921601 2.3682611 0.61458302
-0.236206 2.3663721 0.61616999
-0.22247601 2.369364 0.61852998
-0.158995 2.3689849 0.606251
-0.147962 2.3736861 0.60866398
2.199928 2.3686271 0.60633898
-0.48548201 2.376945 0.61836302
-0.477045 2.387295 0.62024099
-0.282805 2.385772 0.61226398
-0.26747301 2.3796401 0.61354798
-0.19943 2.387109 0.60715401
-0.182511 2.3861899 0.60861498
-0.173759 2.3783951 0.60734898
2.1938601 2.3845711 0.61110598
-0.56525201 2.3913071 0.60540497
-0.32229701 2.3991461 0.60878998
-0.307399 2.39622 0.61035502
-0.294411 2.3934181 0.61170799
-0.28565899 2.401293 0.61392498
-0.21280199 2.402642 0.61010498
-0.192151 2.3957069 0.61027402
2.1831241 2.4016399 0.61649102
2.39431 2.395411 0.60955602
-0.58059901 2.420531 0.60924202
-0.56194699 2.4159329 0.61016297
-0.54127502 2.4085579 0.61077702
-0.33259401 2.4152949 0.60959601
-0.31467101 2.408762 0.61105198
-0.235884 2.4193411 0.612414
-0.220938 2.4097221 0.61124903
2.2006869 2.4112599 0.61761099
-0.35349801 2.4286661 0.60872102
-0.33965999 2.4348209 0.61127198
-0.25117299 2.430181 0.61389202
-0.239629 2.4234431 0.61317903
2.360554 2.4207621 0.615215
-0.55435997 2.440598 0.61534297
-0.53109401 2.4494181 0.61915702
-0.38968301 2.444618 0.60641801
-0.370285 2.440403 0.60820001
-0.27764401 2.4502571 0.61683798
-0.272028 2.445554 0.61608601
-0.25459701 2.4382 0.61579198
-0.54810297 2.452152 0.61803299
-0.41018301 2.464509 0.60665798
-0.39796299 2.4577079 0.60717797
-0.38036999 2.4581871 0.60787201
-0.349363 2.45175 0.60804099
-0.29064399 2.461689 0.61873698
-0.28325799 2.454803 0.61754602
2.2103789 2.4600191 0.609034
-0.426606 2.474267 0.60608399
-0.311885 2.470082 0.61894399
-0.416412 2.482532 0.60834301
-0.39934599 2.485595 0.60728598
2.178889 2.491462 0.61494797
-0.45714301 2.5006471 0.606309
-0.444823 2.506036 0.608302
-0.42962301 2.502521 0.60865098
-0.418219 2.498688 0.608666
2.178144 2.5086119 0.61915898
-0.46456501 2.6149659 0.61023301
2.1121869 2.631587 0.606022
2.089859 2.6583569 0.61375099
2.109314 2.654254 0.61378801
2.0829959 2.668339 0.61674303
-1.633221 2.7030981 0.60748899
-1.649685 2.7143891 0.609492
-1.624103 2.7094181 0.61052799
-1.6651911 2.7228489 0.610677
-1.6127239 2.7218361 0.61582798
-1.603794 2.728972 0.619138
2.1060259 2.7470579 0.60642999
2.1018131 2.760463 0.61023402
2.09165 2.7749879 0.61428702
2.0812221 2.7935491 0.61948001
2.0933189 2.782949 0.61658299
-1.601342 2.8186259 0.61060601
-1.59003 2.8347199 0.61428899
-1.570603 2.845727 0.61698598
-1.615193 3.0181141 0.607449
-1.602843 3.016973 0.60765499
-1.565667 3.0144489 0.60904002
-1.561342 3.0083539 0.607768
-1.582958 3.0247021 0.61072898
-1.625253 3.0432019 0.61291599
-1.610099 3.036232 0.61209202
-1.59788 3.042202 0.61430597
1.929798 3.0403669 0.60578799
1.966393 3.044549 0.60595798
-1.6407731 3.0571871 0.61559099
-1.6138639 3.0555921 0.61685097
1.890308 3.0562971 0.60738301
1.947268 3.0538161 0.60904098
1.959952 3.0602939 0.61048502
-1.656317 3.0797169 0.62026
-1.620948 3.066143 0.61912102
1.810918 3.070627 0.605636
1.955042 3.072042 0.61385399
1.803777 3.0835891 0.609326
1.865316 3.0857949 0.615789
1.930146 3.085202 0.618146
1.774174 3.104815 0.61430001
1.788358 3.1056039 0.61539298
1.798098 3.0978701 0.613518
1.76592 3.113821 0.61666203
-1.7093461 3.1602039 0.60574299
-1.728647 3.1759109 0.609191
-1.749245 3.1938751 0.61178303
-1.737931 3.1936431 0.61359698
-1.7750371 3.214606 0.614007
-1.764099 3.202054 0.61256099
-3.5047171 3.2229321 0.60672599
-1.785569 3.2230461 0.61415702
-3.5208161 3.2314501 0.60919601
-1.797226 3.2371891 0.61361003
-3.5466981 3.2604749 0.61752301
-3.53702 3.2471449 0.61370599
-3.4962931 3.2540359 0.61552101
-1.819169 3.2603419 0.61719698
-1.808678 3.2494111 0.61550802
-3.4859869 3.264096 0.618343
-1.826301 3.266664 0.61812598
-1.780844 3.2664261 0.60612398
1.596989 3.26547 0.60698801
-1.846807 3.28002 0.61983597
-1.8081239 3.2846179 0.60878903
-1.789806 3.275984 0.610825
-1.8222719 3.2945039 0.60937202
-1.814821 3.29579 0.61017299
-1.793608 3.3014569 0.61715299
-1.831566 3.3088629 0.613249
-1.814927 3.3170331 0.61860597
-1.80044 3.309442 0.61868697
-1.880564 3.33447 0.61823797
-1.853575 3.3324461 0.619201
-1.8413 3.32412 0.61736202
-1.830008 3.3231001 0.61768597
-3.6687551 3.349319 0.60762
-3.6564059 3.344506 0.60649401
-3.662185 3.3652091 0.611215
-3.2245729 3.3606379 0.60980397
-3.6754229 3.375587 0.61361802
-1.870105 3.37872 0.60633802
-3.683394 3.3889849 0.61669803
-3.595129 3.3889821 0.61234498
-3.288799 3.3828051 0.60552198
-3.172461 3.393934 0.61725003
-1.935068 3.395051 0.60677499
-1.911454 3.3934481 0.607319
-1.874916 3.385807 0.60838598
0.80375898 3.3893931 0.60814798
-3.6869049 3.398926 0.61897999
-3.2788711 3.4001369 0.60612202
-3.2585299 3.4100089 0.60655999
-1.9301569 3.4059081 0.60900903
0.80156702 3.4091411 0.61298698
0.82042998 3.4018559 0.60878998
-3.6158769 3.4175351 0.606534
-3.2680531 3.4173059 0.60575402
-1.955469 3.4254389 0.61426002
-1.9393719 3.4159231 0.61342102
-1.927457 3.425415 0.616458
-1.916496 3.4164829 0.61441702
0.81459302 3.421144 0.61396003
0.83264202 3.4172771 0.61067599
-3.651226 3.43766 0.60870397
-3.640295 3.432404 0.60698003
-3.6266861 3.4334149 0.61161298
-3.2341599 3.432106 0.61629099
-1.9695899 3.4389601 0.61851901
0.83657199 3.4331839 0.61372602
-3.638793 3.455056 0.61850601
-3.2138131 3.4429171 0.60822397
-3.199229 3.4494331 0.610542
-1.960535 3.4464321 0.61793298
-3.659802 3.464011 0.61862999
-3.187077 3.4586761 0.61350799
-3.1704991 3.458667 0.61356401
-3.1618519 3.468673 0.61607099
-3.1784649 3.47487 0.617993
-3.1567891 3.4810579 0.61988801
-3.120178 3.476707 0.61808199
-1.988148 3.483073 0.606314
-2.0124841 3.492754 0.60697401
-2.0352061 3.5049729 0.60860801
-2.0128829 3.509594 0.612957
-2.054008 3.524936 0.61334801
-2.03772 3.522882 0.61465299
-2.047806 3.5421481 0.62018198
-2.875931 3.5522981 0.60715002
-2.0284779 3.5560679 0.606655
-2.0407369 3.565551 0.60869002
-2.8416331 3.576015 0.61395901
-2.046304 3.578156 0.60876
-3.825706 3.6009231 0.60997599
-3.80654 3.59658 0.60994601
-3.7357531 3.6014161 0.60682601
-2.109179 3.6001289 0.60670102
-2.098079 3.6032009 0.60967702
-2.0789731 3.596417 0.61229199
-2.063798 3.5912321 0.61466002
-3.8383751 3.613584 0.61249501
-3.8173461 3.6098051 0.61271399
-3.7195041 3.61746 0.61237401
-3.7020299 3.611491 0.61760199
-2.092366 3.613765 0.61648601
-3.8064771 3.6267779 0.61765802
-3.7455111 3.629117 0.61483997
-3.729883 3.6281421 0.61057597
-2.960686 3.627562 0.60633302
-2.156812 3.6348619 0.61102402
-2.1439581 3.6350591 0.61334503
-2.1278141 3.6324611 0.61568701
-2.1101291 3.625613 0.61699802
-3.816494 3.6369109 0.61967701
-3.757036 3.6361151 0.61927098
-3.741715 3.6435239 0.61417502
-2.9404681 3.6410949 0.61068302
-2.9225011 3.644654 0.60927302
-2.1670389 3.6424561 0.61189502
-2.155786 3.6494589 0.61635101
-3.827837 3.662333 0.60755497
-2.9105699 3.665427 0.61747801
-2.8933849 3.658118 0.61053401
-2.175328 3.6542511 0.61454302
-3.8251929 3.6744499 0.610645
-2.880554 3.6711719 0.61775798
-2.664078 3.674324 0.60576302
-2.1947949 3.6788249 0.61949402
-2.1852469 3.6727071 0.61913002
-2.1211641 3.6698911 0.60571402
-2.1136839 3.6803911 0.60941303
-2.0886509 3.6664021 0.606493
-3.8477459 3.6885121 0.61354703
-3.8383491 3.6807611 0.611866
-2.8692729 3.6878331 0.61047101
-2.8485999 3.689867 0.61347401
-2.1757159 3.692214 0.60933203
-2.1596899 3.6914339 0.610084
-2.135154 3.6870191 0.61020201
0.21535601 3.6925349 0.607526
-3.8402219 3.7022679 0.61717999
-2.827956 3.709491 0.61849701
-2.2011051 3.7105689 0.613388
-2.1872749 3.702847 0.61189002
0.21860699 3.7033181 0.60997498
-3.857981 3.715775 0.620076
0.053238001 3.7217791 0.61773598
0.227274 3.715296 0.61331499
-2.2063529 3.7288589 0.61868697
-2.1861031 3.727936 0.61971402
-3.8029561 3.742959 0.60662597
-3.7869771 3.7509601 0.605712
-3.8209469 3.7690811 0.616817
-3.803396 3.762532 0.61231601
-2.2621651 3.7606339 0.60637599
-3.8022389 3.77683 0.61590302
-2.288933 3.7804749 0.60679299
-2.2707059 3.777823 0.60614902
-2.253161 3.7821431 0.60571802
-3.8131781 3.799154 0.609496
-2.302223 3.7895601 0.60667801
-2.269371 3.796562 0.60917699
-2.3201959 3.806191 0.60782802
-2.2880559 3.804714 0.61245102
-2.2690251 3.810874 0.61405498
-2.2565429 3.8039069 0.61281699
-3.8217211 3.822257 0.61854398
-2.658519 3.8178179 0.60661799
-2.34937 3.8201311 0.60538799
-2.3201461 3.819695 0.61211503
-2.299298 3.81952 0.61533302
-2.2750721 3.8194981 0.616418
-2.6509881 3.832211 0.611673
-2.635004 3.8353579 0.61192399
-2.3542049 3.843395 0.61145002
-2.338346 3.8343389 0.61240798
-2.3245931 3.8399651 0.61726999
-2.624711 3.848016 0.61612397
-2.593327 3.860086 0.61878902
-2.369628 3.856693 0.61184001
-2.3469241 3.85198 0.61579502
-0.065921001 3.8579669 0.61020797
-3.8692081 3.8727779 0.609716
-2.4572771 3.867671 0.61394203
-2.3762729 3.8741469 0.61548501
-2.34569 3.863723 0.61965197
-0.065908998 3.864742 0.61212301
-0.046840001 3.866008 0.61165798
-0.019982999 3.8656571 0.61040002
-3.8801301 3.8795049 0.61234802
-2.5985551 3.88533 0.60937399
-2.340591 3.8897281 0.608473
-0.033454001 3.876112 0.61392802
-0.01158 3.885561 0.61563599
-3.8796821 3.896575 0.61234403
-3.865459 3.902113 0.60745198
-2.5677099 3.9033771 0.613949
-2.3681779 3.9018741 0.60929298
-2.3532031 3.8998959 0.610524
-2.3242381 3.899713 0.60702097
0.021779999 3.8977971 0.61761302
-3.880373 3.9103689 0.61095798
-2.5537541 3.913543 0.61134797
-2.4150391 3.9120059 0.60664099
-2.3908241 3.917758 0.61194003
-2.3772089 3.910495 0.61118001
0.06236 3.9134541 0.60752302
0.078639999 3.918041 0.606722
-3.885633 3.928653 0.61878502
-2.5341361 3.9310429 0.61380798
-2.5087299 3.929497 0.60883099
-2.3817129 3.9299049 0.61746198
-2.3700359 3.928602 0.61856103
0.051369 3.924906 0.61191899
-3.8950119 3.941005 0.61641997
-2.493701 3.9489391 0.61497003
-5.3492398 3.9580071 0.60943103
-5.3344078 3.952462 0.60855901
-3.9105749 3.954792 0.61458802
-5.3536792 3.977881 0.61614501
-3.9681599 3.9737799 0.61091
-5.365037 3.9882281 0.618958
-4.011292 3.981312 0.60578001
-3.9796591 3.991924 0.61443901
-3.924618 3.983345 0.61100698
-0.211933 3.995425 0.61179602
-3.999331 3.9958351 0.61109
-0.23938499 4.000267 0.61747098
-0.211568 4.0050201 0.61422598
-0.185737 4.0099411 0.611341
-4.017828 4.0128899 0.61357599
-3.978081 4.0118799 0.61963099
-2.403518 4.0243049 0.60777998
-2.383759 4.024404 0.60582101
-0.14214601 4.0150161 0.60563499
-4.0115161 4.0290861 0.61925501
-3.9428861 4.0397959 0.61201102
-2.36165 4.038332 0.60905802
-3.9507351 4.0486012 0.61599702
-0.099510998 4.0454769 0.606543
-0.26747799 4.0645909 0.61510003
-0.226 4.0687089 0.61292899
-0.167952 4.0592589 0.61186898
-0.101197 4.0678258 0.61243302
-0.088288002 4.0583649 0.60798901
-3.990983 4.085206 0.61206102
-0.139467 4.0733461 0.60725701
-0.113293 4.077107 0.61151397
-0.080632001 4.0816169 0.612562
-0.13023899 4.0920072 0.61174297
-0.32841799 4.1090431 0.61176002
-0.202314 4.1015449 0.60577601
-0.14031599 4.1028461 0.615587
-0.35389799 4.1162772 0.61851799
-0.24911401 4.1307721 0.61789399
-0.235394 4.1388478 0.61954802
-4.0036702 4.155704 0.61347997
-4.014348 4.1730618 0.617522
-4.0214839 4.1769052 0.60964298
-0.434053 4.1803422 0.60579503
-4.0251341 4.1940408 0.61679602
-0.47695899 4.202034 0.61693799
-0.444563 4.1981859 0.61203498
-0.43931901 4.2127728 0.61551201
-0.42630199 4.2062469 0.61214799
-4.042881 4.2482982 0.60912502
-4.0733161 4.2566199 0.61024499
-4.0447149 4.2589211 0.61483401
-0.372399 4.2605338 0.60810101
-4.091145 4.266593 0.61324298
-4.0619669 4.2792411 0.60959899
-0.362589 4.2730842 0.60843402
-0.338384 4.293611 0.60705501
-4.1195941 4.316113 0.60584998
-0.34763199 4.3132062 0.61305398
-4.1482568 4.332365 0.607243
-0.35820001 4.3309522 0.61889499
-0.338842 4.333097 0.61492801
-4.1451068 4.3529658 0.61286801
-0.458424 4.343894 0.60745299
-4.167469 4.3677878 0.61449498
-4.1150908 4.368166 0.60923302
-4.1061711 4.3572512 0.61645001
-0.469293 4.357089 0.61276501
-0.45311299 4.3646941 0.61372799
-4.1270442 4.3800931 0.61240798
-0.439015 4.372262 0.61487001
-0.41704899 4.3789129 0.61497498
-4.449234 4.3879299 0.60919201
-4.430335 4.396379 0.61762297
-0.44268599 4.3932681 0.615978
-4.378613 4.4088082 0.61150002
-0.38461399 4.404242 0.62014598
-4.3579259 4.4169931 0.619133
-0.57204902 4.4264679 0.61219102
-4.3209891 4.432652 0.61742502
-0.57305402 4.4371171 0.61318898
-0.53371501 4.5302572 0.60712498
-2.419872 4.5473132 0.60994703
-0.54707098 4.5491662 0.61416799
-0.531959 4.5419612 0.609577
-2.4952281 4.5520411 0.61071998
-2.400104 4.5554709 0.60828203
-0.53768498 4.5550628 0.61376399
-0.510701 4.563385 0.61056501
-2.478575 4.5669112 0.61360002
-2.4615009 4.5782528 0.61146098
-2.4047711 4.5687919 0.61530602
-2.392206 4.5754962 0.61485201
-0.47200501 4.5734978 0.60554701
-2.442466 4.592113 0.613455
-0.47350699 4.5881109 0.60922098
-0.46125299 4.5849319 0.60615301
-0.65619498 4.63342 0.606188
-0.67659098 4.644186 0.61304301
-0.65821803 4.6417818 0.60841697
-0.794765 4.665288 0.61954999
-0.66571099 4.6616731 0.61424899
-0.65686399 4.6570511 0.611314
-0.66040301 4.6796699 0.61674798
-0.99619597 4.7046471 0.61957002
-1.018622 4.7229648 0.61838901
-1.028881 4.7388482 0.61919898
0.41472399 -0.86427802 0.62716299
0.42373699 -0.85319501 0.62990803
0.34251201 -0.83653402 0.62316298
0.43952101 -0.84322798 0.63494903
0.34626001 -0.820804 0.62484401
0.357963 -0.81337601 0.62973201
0.69248199 -0.73442298 0.62572199
0.70367098 -0.71845597 0.62970698
0.57803398 -0.71242797 0.62534702
0.589737 -0.70982498 0.630117
0.71272898 -0.701877 0.63305098
0.59093601 -0.69270498 0.62537402
0.83639997 -0.56498897 0.62234998
0.96065497 -0.57559901 0.62044603
0.98073202 -0.57219601 0.62677097
0.99801201 -0.56762397 0.63233501
0.85035098 -0.55799598 0.62456298
0.86420399 -0.56071401 0.633223
0.87047797 -0.55535299 0.62872201
0.88241601 -0.53338301 0.63522798
0.998119 -0.446614 0.622163
1.0176539 -0.45786399 0.62571198
1.02633 -0.445476 0.62793601
1.007569 -0.44026399 0.62430698
1.034922 -0.43305999 0.63015199
1.048007 -0.420369 0.63331199
1.120381 -0.420212 0.62369502
1.266518 -0.422452 0.62085301
1.1235 -0.40591699 0.62395298
1.17073 -0.410252 0.62404197
1.194513 -0.40326399 0.63213301
1.277603 -0.41229799 0.624942
1.297617 -0.405983 0.63117701
1.3068579 -0.39964801 0.63439399
1.12333 -0.384601 0.629089
1.1400549 -0.39053199 0.62981302
1.85506 -0.38468799 0.62142098
1.926327 -0.37389201 0.62657797
1.862478 -0.36511701 0.62557399
1.875718 -0.360383 0.62943399
1.896431 -0.361339 0.63450199
1.918386 -0.361177 0.62570399
1.938038 -0.364885 0.63142598
1.88258 -0.351513 0.63220102
1.934334 -0.349673 0.63238102
2.1698289 -0.32583901 0.621979
2.181 -0.31649601 0.62569898
2.197937 -0.30838901 0.63051099
1.42918 -0.29130101 0.62367499
1.426936 -0.275933 0.62279898
1.439131 -0.268534 0.62789202
1.4597 -0.26580101 0.63431698
1.4010431 -0.26400599 0.62315297
1.4130599 -0.255907 0.62422699
1.435019 -0.25470299 0.62918299
1.43863 -0.250379 0.63295299
1.418172 -0.23823801 0.62909597
1.428378 -0.24432901 0.631015
2.1877789 -0.234768 0.62103599
2.20678 -0.240898 0.62483603
2.3180921 -0.24282899 0.62453097
2.1636031 -0.22703101 0.62260902
2.213927 -0.23278999 0.62792498
2.2201049 -0.22289 0.63106
2.3245389 -0.22709399 0.62582397
2.17893 -0.219181 0.62687302
2.1913359 -0.20509499 0.630979
2.231739 -0.215739 0.63514203
2.346859 -0.216885 0.63151801
2.304451 -0.160653 0.62075901
2.322263 -0.144593 0.62819898
2.33534 -0.134204 0.633412
2.515981 -0.099950001 0.62077898
2.5218379 -0.091277003 0.62391901
2.532232 -0.080714002 0.62854701
2.544837 -0.073399 0.63308197
2.68858 -0.060543001 0.62086499
2.6781061 -0.049254 0.62616301
2.7090981 -0.046526 0.62929899
2.749341 -0.042709999 0.634812
2.7358329 -0.032949001 0.63166302
2.425071 -0.019285999 0.629188
2.442512 -0.017842 0.63283098
2.597862 0.019083999 0.62041497
2.630187 0.027798999 0.62780601
2.64485 0.037976 0.631791
2.7997291 0.090511002 0.62149698
2.812788 0.091068 0.62461799
2.816318 0.101944 0.62794799
2.826369 0.105291 0.63103098
2.833776 0.111685 0.63421601
3.221853 0.192268 0.62738001
3.228663 0.209355 0.62890601
3.217412 0.23006199 0.62699801
3.227951 0.22006001 0.62890601
3.1503279 0.23385 0.62279701
3.2028849 0.240264 0.624327
3.2020271 0.25144401 0.624327
3.196281 0.27345699 0.623564
3.2128699 0.26358199 0.62661701
2.8847389 0.28702599 0.62173098
2.9596109 0.28227499 0.63149899
3.187485 0.283914 0.62203699
2.900604 0.29223499 0.625669
2.922358 0.29211101 0.62945199
2.9264159 0.308265 0.63376498
3.033226 0.319664 0.62198102
3.0546131 0.32714 0.62576598
3.204298 0.322644 0.62786102
3.0665481 0.342103 0.62999302
3.0825419 0.35263401 0.63379902
3.157203 0.41352901 0.62182599
3.1722579 0.42535201 0.631172
3.096138 0.427028 0.62061697
3.112782 0.44152001 0.62541199
3.1404381 0.44751 0.62977302
3.1776121 0.44632301 0.63379401
3.051178 0.69318801 0.622567
3.0377541 0.72004402 0.62781698
3.020647 0.74380797 0.63152599
3.2162671 0.760952 0.630934
3.021616 1.11494 0.62290102
3.0370679 1.1025079 0.62099302
2.837153 1.1239229 0.62234002
2.845577 1.131678 0.62592798
3.0141339 1.134936 0.62972599
-2.072094 1.147163 0.634624
2.8239441 1.153661 0.62941402
2.9950659 1.1574889 0.635167
3.008497 1.1503479 0.63502699
2.8177991 1.166537 0.632411
2.79403 1.215459 0.62754297
2.8441801 1.241738 0.62648797
2.7381301 1.26315 0.63079101
2.8444531 1.269134 0.63350302
2.8142691 1.359423 0.62076002
2.804435 1.385559 0.625772
2.775517 1.422738 0.63163799
2.6973219 1.4349771 0.62123299
-2.424571 1.4597861 0.62279999
-2.3971429 1.4523391 0.62082398
2.685662 1.451782 0.62523103
-2.4245081 1.472088 0.62413299
-2.406281 1.46297 0.622352
2.6828859 1.4641221 0.62880701
2.6858001 1.470032 0.630988
-2.4258299 1.489222 0.62606502
2.6688099 1.485343 0.63391399
2.8206551 1.484239 0.62192702
-2.4529791 1.503267 0.62885702
-2.442513 1.493668 0.62730902
2.8074591 1.505419 0.62605
-2.457442 1.526232 0.63164598
2.7539539 1.532482 0.62147802
2.771739 1.523141 0.62063402
2.802886 1.521629 0.62986499
-2.4787371 1.541712 0.63443202
2.7497211 1.548432 0.627437
2.787735 1.543588 0.63396001
2.751076 1.5605789 0.63276899
2.675143 1.6187429 0.62194198
-0.944821 1.636258 0.62510198
-0.93165499 1.637462 0.62579
-0.95201802 1.649954 0.62534702
-0.91720498 1.6511019 0.62707299
-0.91033798 1.652727 0.627487
2.6583741 1.648814 0.62728202
2.63503 1.6835819 0.63310599
-0.88933903 1.691727 0.63015598
2.589757 1.68995 0.62188399
2.5840659 1.7048171 0.62622398
2.5720291 1.724804 0.63172102
2.5571401 1.739298 0.63524902
-0.86249298 1.745617 0.63373601
0.59267801 1.8097529 0.62300098
0.6092 1.8186949 0.62542701
0.61886603 1.812402 0.62577701
0.61143702 1.827098 0.62645102
0.63336402 1.828348 0.62872303
0.53963399 1.841208 0.621746
0.57352602 1.844234 0.62477499
0.58921403 1.841381 0.62582397
0.604684 1.8438129 0.62744403
0.619286 1.837323 0.628187
0.53625703 1.8608201 0.62364399
0.54446697 1.854811 0.62358803
0.55386603 1.85545 0.62437499
0.580145 1.861577 0.62711501
0.59781599 1.8574131 0.62818801
0.50914598 1.878364 0.62380099
0.53237599 1.872734 0.624704
0.54899502 1.8721631 0.62582701
0.56680602 1.8669749 0.62661302
0.57809299 1.872458 0.62808597
0.46069899 1.8937939 0.62287199
0.46480301 1.884421 0.62190503
0.484534 1.890518 0.62377298
0.493278 1.888021 0.62397701
0.525024 1.885865 0.62570798
0.54623097 1.886842 0.62726402
0.47969499 1.903089 0.62506998
0.49416399 1.904566 0.62606102
0.51467597 1.900304 0.62675202
0.531901 1.89818 0.62759399
-0.83589 1.923646 0.62323499
0.42456701 1.924197 0.62520701
0.45455599 1.91388 0.62516898
0.46947199 1.917851 0.62642699
0.48932499 1.911741 0.62668598
0.50784397 1.9140249 0.62801099
2.4727831 1.924335 0.62700701
2.480937 1.911249 0.62313402
2.5291569 1.914907 0.622352
0.42452699 1.939284 0.627316
0.44682401 1.933615 0.62746501
0.45655501 1.928268 0.62718099
0.47198901 1.938666 0.62929201
0.48215199 1.928332 0.62843102
0.49397701 1.927851 0.62897801
0.56074601 1.9265569 0.63282102
2.4741759 1.929546 0.628703
2.5236449 1.930666 0.62799799
-0.82075101 1.9428951 0.62703001
0.411567 1.94646 0.62784499
0.43830001 1.941601 0.62820202
0.45553699 1.946157 0.62956601
2.4289961 1.9462709 0.63245499
2.4730899 1.941191 0.63234103
2.495585 1.943972 0.62963599
2.518039 1.946427 0.633636
-0.81026101 1.9627399 0.63054103
0.37284201 1.964568 0.62926298
0.38787401 1.960996 0.62918299
0.39632201 1.964617 0.62999898
0.408948 1.960765 0.62984502
0.41966501 1.956959 0.62967002
0.43920901 1.960338 0.63089103
2.4932139 1.955651 0.634058
-0.79525602 1.981259 0.63427103
0.34985501 1.980113 0.63108099
0.36569801 1.9771661 0.63102698
0.38225001 1.979548 0.63186502
0.40071699 1.9758559 0.63184601
0.416105 1.973102 0.63192499
0.47292 1.978055 0.63324201
0.48590201 1.9718111 0.63446498
0.49699599 1.973032 0.63490599
0.357667 1.9953769 0.633753
0.378813 1.99406 0.63406402
0.40363601 1.98639 0.633551
0.43105999 1.995441 0.62883002
0.45719001 1.9926389 0.63378298
0.32260999 2.0046799 0.63454401
0.34385899 2.0032461 0.63474298
0.37363499 2.0018139 0.635185
0.43144599 2.0086119 0.63225901
0.444886 2.001004 0.63232899
0.38756499 2.0284269 0.62698197
0.402228 2.0216539 0.62838501
0.41200101 2.019078 0.629673
0.361307 2.041558 0.62466401
0.38029501 2.03616 0.63063997
0.33592799 2.0598531 0.62344497
0.35121301 2.0503609 0.62445199
2.4728391 2.050231 0.62245399
2.486114 2.055541 0.625085
0.230424 2.0728681 0.62080002
0.24866299 2.071784 0.62131202
0.26285201 2.066952 0.62089401
0.312444 2.0703521 0.62118101
0.32608801 2.063802 0.62241399
2.47526 2.070622 0.62840998
-0.79581898 2.084136 0.62185001
-0.77488601 2.0820529 0.62361598
-0.760158 2.0837071 0.62531102
-0.73568499 2.082536 0.62759298
0.199944 2.0869961 0.62261701
0.212093 2.083935 0.62242597
0.23904499 2.082418 0.62315899
0.297483 2.0852029 0.62120199
2.482959 2.07833 0.63123798
-0.75809401 2.0980699 0.62756598
-0.72845101 2.0973649 0.63044399
0.169505 2.097769 0.62382603
0.185866 2.0986321 0.62461603
0.216792 2.09971 0.62600398
2.378324 2.0922201 0.62057799
2.394917 2.0944259 0.62117398
2.4095769 2.0972819 0.62197697
-0.62392002 2.1130581 0.62044501
0.16132499 2.11237 0.62676197
0.16982999 2.1157629 0.62782502
0.2368 2.110822 0.63358802
2.3772039 2.1096859 0.62594801
-0.732719 2.124295 0.63387501
0.13420799 2.130533 0.62992197
0.151976 2.125258 0.62933201
2.3765881 2.132014 0.63274598
2.3856699 2.1206939 0.62925798
0.113293 2.1464989 0.63289899
0.124862 2.1374741 0.63119501
0.190898 2.144465 0.63514799
2.359453 2.1391931 0.63501602
-0.60847801 2.1521461 0.62434697
0.095071003 2.1520441 0.633596
2.367106 2.1622231 0.623182
-0.75628799 2.176506 0.62997401
-0.59777498 2.1760261 0.62683499
-0.58618498 2.20381 0.62966299
0.0021550001 2.2084119 0.63221401
-0.0080009997 2.2211289 0.63224602
0.012491 2.2138469 0.63471103
2.385134 2.2251611 0.622684
-0.57530999 2.229738 0.63230902
-0.047800001 2.240356 0.62825799
-0.035021 2.237251 0.62994099
-0.019373 2.228148 0.63129997
-0.060451999 2.2466929 0.627051
-0.037338998 2.250567 0.62036902
-0.019991999 2.2476339 0.62073898
2.3693409 2.2482929 0.62746501
-0.59491402 2.2647879 0.62039
-0.083908997 2.26719 0.62603301
-0.073253997 2.262265 0.627083
-0.054356001 2.2665601 0.62594801
-0.043133002 2.2595069 0.62732899
-0.026068 2.2578449 0.62300098
2.303478 2.2683711 0.62162
-0.69417101 2.2746511 0.63391697
-0.59494501 2.2853079 0.62393397
-0.12759601 2.2830811 0.62126899
-0.1014 2.2712569 0.62379301
-0.091787003 2.2805951 0.62553102
-0.070720002 2.2769461 0.62511301
-0.050473999 2.2736039 0.62554598
2.3169379 2.2769229 0.62348098
2.349473 2.272228 0.63221902
2.3755779 2.2823391 0.62574297
-0.59088898 2.2979281 0.62645799
-0.112113 2.2936931 0.62584102
-0.100096 2.300245 0.629403
-0.084761001 2.287632 0.62703401
2.2916629 2.292753 0.62909102
2.294627 2.291528 0.62861699
2.351567 2.299299 0.62977201
2.3695891 2.3002281 0.631962
2.4068251 2.2872441 0.62047899
-0.57413602 2.3065031 0.62935197
-0.14214399 2.3095119 0.62255502
-0.123619 2.3146501 0.63174897
-0.114337 2.3063879 0.63012701
2.3070879 2.304966 0.63186198
2.335813 2.30797 0.63147998
-0.56508899 2.3210959 0.63265401
-0.54733503 2.3248301 0.63481802
-0.17281599 2.3264151 0.63174403
-0.15757599 2.3238051 0.62210101
-0.148131 2.321887 0.62780601
-0.136995 2.315882 0.62787402
-0.56056702 2.3330901 0.63512802
-0.173465 2.339077 0.62173003
-0.165603 2.3334589 0.63412601
-0.63140398 2.3766351 0.63149101
2.1974721 2.3880589 0.63081503
-0.46628699 2.399915 0.62258703
2.1798451 2.401509 0.63043302
2.195744 2.402962 0.63272297
2.1688221 2.4061849 0.62967002
2.1817379 2.4203219 0.62147301
-0.45146501 2.4253089 0.62663102
2.1669559 2.421056 0.63157803
2.199522 2.432333 0.62315398
-0.438941 2.4465189 0.63003802
-0.42972001 2.4469011 0.63105798
-0.40028301 2.4483781 0.63444698
2.1676209 2.4388771 0.63424897
2.1848559 2.44187 0.62674803
2.192493 2.446861 0.62740803
-0.529948 2.4623859 0.62162399
-0.414175 2.4569321 0.63373202
2.147543 2.4578731 0.63444
2.176173 2.4624121 0.63260001
2.1936221 2.4577429 0.63006002
2.260124 2.4609449 0.62188399
2.293294 2.4597371 0.62315202
-0.52803099 2.4734981 0.62383199
-0.42312899 2.4659519 0.63364398
-0.31964701 2.4791119 0.62071002
2.183188 2.472954 0.63466102
2.194824 2.4771481 0.63478601
2.261559 2.478744 0.62707001
-0.523651 2.4876349 0.62682998
-0.50867403 2.493541 0.62935603
-0.32799301 2.4884751 0.62251598
-0.50190401 2.5046589 0.63204598
-0.353692 2.5087509 0.62566501
-0.34285501 2.4988019 0.623936
2.226346 2.5035779 0.63248801
-0.49937901 2.513953 0.63399398
-0.37290001 2.515846 0.625727
-0.41716799 2.531132 0.62557101
-0.393453 2.5276699 0.62700802
2.1627541 2.5323031 0.624116
2.142086 2.558996 0.62950301
2.1151731 2.586581 0.63473803
2.0785179 2.6812401 0.62094301
2.0715499 2.6912031 0.623918
2.0424869 2.710278 0.628411
2.0555489 2.7077799 0.62853098
2.0746441 2.7126009 0.63168699
2.0429759 2.728734 0.634942
-1.6002949 2.7449329 0.62478
-1.592757 2.7604671 0.63072503
-1.577085 2.7510049 0.62931699
2.0730059 2.803324 0.62217999
2.0647471 2.8130391 0.62485999
2.078079 2.8187821 0.62663299
2.0636001 2.833602 0.630687
2.0372159 2.850301 0.63514298
-1.5634561 2.8612089 0.620498
-1.548905 2.875663 0.623896
-1.533352 2.892844 0.62792802
-1.523324 2.8959479 0.62586403
-1.5237761 2.9117651 0.62594497
-1.511797 2.9135301 0.63283801
-1.532557 2.92747 0.62866801
-1.509045 2.923131 0.63502997
-1.550547 2.933877 0.626697
-1.563777 2.9531391 0.63243997
-1.5578409 2.95538 0.62951601
-1.542962 2.945946 0.62851799
-1.571094 2.969301 0.62947398
-1.586388 2.986665 0.62567198
-1.597532 2.9958119 0.62649
-1.605971 3.010159 0.62835199
-1.630836 3.0332079 0.63064301
-1.62035 3.029331 0.63064897
-1.661813 3.065439 0.63411701
-1.645685 3.0574701 0.63377202
-1.671973 3.0891211 0.62187099
-1.641504 3.0894461 0.62394297
-1.634205 3.0828149 0.62263101
-1.689594 3.1102419 0.62614697
-1.6555001 3.0988059 0.62563503
-1.650679 3.1085329 0.62827098
1.902012 3.1090059 0.62542099
1.906145 3.097858 0.62226498
-3.5663011 3.1237381 0.63103402
-3.5524139 3.1254351 0.63099402
-1.705407 3.117743 0.63057798
-1.684847 3.118567 0.62826401
-1.661671 3.1165509 0.629776
1.885115 3.124692 0.63014799
1.89657 3.116699 0.62766302
-1.716501 3.1365311 0.63425797
-1.705115 3.1276629 0.63211298
-1.675208 3.1330011 0.63328999
1.765772 3.140168 0.62499499
1.868098 3.1401491 0.634799
1.877619 3.132396 0.63244098
-3.550055 3.1449289 0.63482499
-3.5149369 3.1454599 0.633973
1.751278 3.163399 0.63147801
1.761256 3.155762 0.62966001
1.729861 3.174973 0.63384801
1.743732 3.174021 0.63438398
-3.5064051 3.2141621 0.62115997
-3.4929399 3.2086849 0.63066697
-3.518501 3.222892 0.62366402
-1.7789741 3.230114 0.62171602
-1.764402 3.22404 0.62069499
-1.804249 3.2351739 0.621997
-1.79023 3.238353 0.62345803
-1.767192 3.231513 0.62259501
-3.4801819 3.253227 0.63165998
-1.811442 3.2563839 0.62740701
-1.827024 3.2662859 0.62939698
-1.812366 3.273303 0.63192898
-1.792895 3.262161 0.629767
0.79054499 3.273751 0.62113702
-3.4696181 3.2783699 0.622343
-3.4482861 3.286865 0.62469399
-1.858188 3.289623 0.63430703
-1.8395489 3.2870331 0.62158799
-1.830272 3.282063 0.63350701
0.79315299 3.2851069 0.62381899
-3.5624361 3.2921171 0.62655902
-3.4347081 3.3027401 0.629161
-3.4177079 3.3001981 0.628398
-1.851746 3.29546 0.622706
0.77731597 3.29897 0.62895298
0.78318501 3.303689 0.62956798
-3.577553 3.3142409 0.63289499
-3.3995399 3.316761 0.63305598
-1.8568881 3.3128641 0.62596202
0.766976 3.3117061 0.63321102
-1.867151 3.3305459 0.62903899
-1.834908 3.33477 0.620974
-1.8059191 3.3275089 0.622971
-1.8828059 3.346988 0.631625
-1.8627011 3.338882 0.62063199
-1.8531851 3.3486099 0.62414902
-1.836701 3.3456421 0.62503999
-1.819585 3.335947 0.62408
-1.912686 3.3628221 0.624892
-1.899982 3.362335 0.62985498
-1.88686 3.3525369 0.623353
-1.8731019 3.3510759 0.62373102
-1.854431 3.3633411 0.628429
-1.82473 3.354336 0.62849301
-1.904477 3.3779919 0.63197398
-1.8897851 3.369375 0.62828797
-1.866851 3.372627 0.63036197
-1.924615 3.391515 0.63448101
-1.886485 3.3865559 0.63322097
-1.865114 3.381026 0.63226002
-3.7095339 3.4063449 0.62075502
-3.106281 3.410583 0.62104899
-1.9056261 3.398037 0.63468099
-3.6946609 3.4144061 0.62254798
-3.608464 3.4175739 0.62143898
-3.126071 3.420212 0.62313402
-3.1186309 3.4159491 0.62220597
-3.0849741 3.416163 0.622325
0.73733401 3.4241149 0.62491202
-3.719578 3.436518 0.62771398
-3.704051 3.429008 0.625929
-3.6154571 3.430696 0.625624
-3.0602291 3.4299359 0.62541699
-1.93037 3.4376521 0.62145603
-3.7218001 3.450994 0.63104999
-3.6431961 3.4490249 0.63172501
-3.629441 3.44173 0.62925899
-3.2124579 3.446821 0.624062
-3.19157 3.446893 0.62370503
-3.029525 3.4489501 0.629677
-1.981408 3.4547889 0.62272203
-1.945714 3.4441099 0.62230903
-3.7483461 3.4648731 0.63436198
-3.735456 3.4596369 0.63309699
-3.204752 3.4574809 0.62723398
-3.1810689 3.468225 0.63013703
-3.16081 3.466511 0.62922901
-1.973336 3.4646859 0.62672299
-1.953794 3.4621339 0.62761301
-3.674103 3.4754889 0.62094301
-3.1503041 3.4801869 0.63327998
-3.099086 3.4825339 0.62646598
-2.0068979 3.474472 0.62687302
-1.993287 3.484271 0.62649697
-1.980279 3.473726 0.62454402
-3.667803 3.49369 0.63088799
-3.139358 3.4865489 0.62155199
-3.136348 3.497858 0.625126
-3.1120169 3.4900639 0.62899297
-3.0918281 3.4979379 0.631145
-3.076637 3.491884 0.62248403
-2.007591 3.4972 0.62918901
-1.981409 3.48681 0.63329899
-3.6856129 3.5046029 0.63136399
-3.10309 3.505373 0.62712198
-3.061789 3.507499 0.62742698
-3.700655 3.51718 0.63442302
-3.076293 3.5208869 0.63176101
-2.0208931 3.5201631 0.62917203
-2.062571 3.5407131 0.62487501
-2.029449 3.5321641 0.63166797
-2.085006 3.558706 0.62113398
-2.050302 3.550637 0.62591797
-2.0646901 3.56094 0.62457597
-2.10337 3.582155 0.62672502
-2.086133 3.5781701 0.62768698
0.22292501 3.5816269 0.63255101
-2.803369 3.6041551 0.62196702
-2.124104 3.6027589 0.63086098
-2.781538 3.618223 0.62605101
-2.1804681 3.615536 0.62712502
-2.1742189 3.616745 0.628425
-2.1606071 3.6114759 0.628631
-2.7610149 3.630832 0.62974203
-2.739393 3.626708 0.62939602
-2.180917 3.629149 0.63154
-2.153405 3.6229091 0.63345098
-3.822536 3.6477549 0.62210101
-2.733633 3.6448171 0.63397598
-2.7129779 3.643249 0.63422501
-2.1846011 3.6436639 0.63248301
-2.1296661 3.6460299 0.62653702
-2.1125171 3.6469951 0.62763202
0.18142401 3.647567 0.62102801
-3.8324211 3.657866 0.62412202
-3.7621901 3.651957 0.62496001
-3.7470851 3.6625741 0.620911
-3.7350371 3.650785 0.63177401
-2.195312 3.659132 0.63510001
-2.163553 3.6553271 0.62228
-2.1455121 3.6609409 0.62984598
0.18571299 3.662075 0.62498301
-3.866488 3.680228 0.62789601
-3.837976 3.67257 0.627554
-3.7713521 3.677285 0.63273102
-3.7555571 3.676096 0.62572998
-2.8527541 3.6802111 0.62270802
-2.186625 3.6726379 0.63101
-2.173866 3.6682529 0.62508899
-2.1363089 3.6696081 0.632671
0.198075 3.66991 0.62704003
-3.8618031 3.6887181 0.63032198
-2.8671939 3.689044 0.62625802
-2.8499911 3.695441 0.62712198
-2.199183 3.6898439 0.62879503
0.187685 3.685272 0.631329
0.209433 3.690155 0.63250101
0.223187 3.695111 0.63071102
-3.8448291 3.702687 0.63483399
-2.839051 3.701195 0.62780303
-2.2160821 3.707684 0.62529099
-0.032951999 3.7053511 0.626257
-2.822964 3.7127261 0.63231999
-2.8090751 3.710999 0.63229197
-2.8016469 3.719064 0.62814802
-2.210326 3.721705 0.631033
0.212865 3.714323 0.63382298
-3.8595431 3.7317269 0.624017
-2.7846839 3.7337689 0.627235
-2.7164209 3.726222 0.63467401
-2.602201 3.7283101 0.62379402
-2.2288959 3.7321529 0.63095999
-2.218224 3.7367859 0.62034601
0.049017999 3.731096 0.62067401
0.212153 3.7372439 0.620341
-3.88166 3.7466221 0.62715203
-3.8612771 3.7425389 0.62667298
-2.763736 3.7417171 0.630234
-2.733804 3.7543049 0.62846601
-2.2473979 3.751188 0.62822002
-2.2308121 3.7434039 0.621539
0.018267 3.744468 0.62700403
-3.8822191 3.7667799 0.632177
-2.7182169 3.7586651 0.63224
-2.257431 3.7591801 0.63423598
-2.2483029 3.7670431 0.627599
-2.228838 3.7678211 0.62917
-0.0047829999 3.7560871 0.63218302
0.008409 3.7621801 0.63271701
-3.895473 3.775095 0.63390702
-2.2700219 3.773695 0.63236201
-3.8225429 3.7968781 0.625781
-3.8069489 3.792115 0.62188601
-2.247746 3.7899179 0.63463902
-3.8403511 3.8015571 0.62948501
-3.8240049 3.8205659 0.63306803
-2.509028 3.8187621 0.623227
-3.8315139 3.835247 0.62363702
-2.2895451 3.8389671 0.62162298
-3.851573 3.8540061 0.63098401
-3.8399141 3.859416 0.63308603
-2.3218651 3.8585219 0.625045
-2.307107 3.858496 0.62648398
-2.6154151 3.861295 0.62060797
-2.608376 3.8653619 0.621719
-2.3508921 3.874465 0.62310499
-2.3143589 3.8735011 0.63077199
-2.5908849 3.8770859 0.62507701
-2.5707321 3.8763421 0.623528
-2.3631909 3.8815789 0.62081301
-2.332916 3.878973 0.630732
-2.3178849 3.8855081 0.63441199
-2.5690041 3.8958991 0.63080603
-2.5501339 3.89487 0.62920499
-2.377074 3.9003389 0.63318998
-2.3611369 3.891706 0.63203698
-3.8946609 3.9081681 0.62443203
-2.5504811 3.9109819 0.63529801
-2.5354199 3.9103329 0.63406998
-2.409369 3.9065299 0.631742
-3.9023831 3.925473 0.63173699
-2.525207 3.9321091 0.621575
-0.0056440001 3.932775 0.62106502
-3.9018691 3.9457071 0.62602401
-2.5204539 3.9464281 0.62651098
-2.4998009 3.941951 0.62337399
-2.374145 3.943542 0.62329602
-2.3675449 3.9373829 0.62200803
-0.086478002 3.941129 0.63328701
-3.911726 3.965759 0.63455802
-2.4865661 3.9680309 0.62849802
-2.466094 3.9776111 0.62879199
-3.9244549 3.9825101 0.62635702
-2.456131 3.9933929 0.62867099
-2.4345839 3.9891219 0.62555999
-3.9368191 3.996819 0.62463802
-3.93643 4.0122452 0.62413198
-2.4146259 4.0138559 0.633156
-3.9500301 4.033534 0.63348901
-2.380811 4.026124 0.63513499
-4.0304599 4.0475559 0.621786
-4.0102539 4.0447378 0.62493199
-4.026906 4.0699372 0.62873298
-4.0132179 4.0607572 0.62868702
-3.961936 4.0672402 0.62259603
-4.04528 4.074789 0.62792802
-3.9715371 4.078547 0.62959599
-0.19470701 4.0738392 0.62451202
-4.0424328 4.0868282 0.63195997
-4.0238528 4.0899949 0.63504303
-0.21027499 4.0902872 0.63064599
-0.189548 4.0969191 0.63158703
-3.9957011 4.1048131 0.62166798
-3.974251 4.1008511 0.62470502
-4.008389 4.1273308 0.63205498
-3.9794049 4.1180239 0.63262302
-0.39451599 4.1277361 0.629237
-0.38531101 4.1225462 0.62619698
-0.21782701 4.1202321 0.62672198
-0.41460201 4.1325512 0.63431799
-0.063008003 4.1382308 0.62355101
-0.26038101 4.1579709 0.62584603
-0.43992299 4.1739988 0.63393903
-4.025744 4.1878228 0.62380302
-4.0617242 4.2141738 0.62987798
-4.0405459 4.2102809 0.62984198
-0.50252599 4.2160268 0.62840199
-0.491597 4.2093759 0.62882
-0.51828098 4.233335 0.63057703
-0.51141101 4.2322769 0.62965101
-0.468889 4.2271929 0.634332
-0.483816 4.2372289 0.62758398
-0.46741 4.240622 0.62658298
-0.441145 4.2432508 0.624201
-0.453087 4.2515502 0.627904
-0.415681 4.2560992 0.624722
-4.0786629 4.2769589 0.62106299
-4.0550399 4.2767348 0.62392998
-0.42924899 4.268537 0.62973702
-4.0635009 4.2870378 0.62138599
-0.41688499 4.2879291 0.63354301
-4.0969372 4.2960329 0.629026
-4.0760598 4.301249 0.62794799
-0.37357599 4.2997131 0.63158101
-0.205037 4.310297 0.632815
-0.35061499 4.3504601 0.62089199
-0.38341299 4.3676391 0.63142902
-0.35910699 4.3682542 0.62611097
-0.34556499 4.3609352 0.621719
-4.1217809 4.3855972 0.62378502
-0.57101899 4.3965201 0.63094997
-4.4131269 4.4040461 0.62528402
-4.4020262 4.4050641 0.62825203
-4.1355371 4.407989 0.62769401
-0.570306 4.4097629 0.63427103
-0.44720301 4.405571 0.62643999
-4.3347888 4.4274611 0.626369
-4.1467729 4.4218278 0.63443202
-0.38799101 4.4159532 0.62424803
-4.3189602 4.4311042 0.63269502
-4.3007312 4.4383769 0.62361503
-4.27916 4.4414892 0.62848699
-4.2822161 4.4523859 0.63414299
-0.59543502 4.455698 0.62396002
-0.56735498 4.4593649 0.62228203
-0.585365 4.4679179 0.62390202
-0.59711802 4.488791 0.63474101
-0.57355601 4.489264 0.62918299
-2.212898 4.5755668 0.62502497
-2.1905279 4.5782142 0.62314898
-0.73254597 4.5709319 0.63309997
-2.470082 4.589149 0.62678701
-2.40132 4.589972 0.62350398
-2.179415 4.5926638 0.62744302
-2.4551599 4.604435 0.62736797
-2.3857939 4.5983748 0.622922
-2.205035 4.5966101 0.63275701
-2.190311 4.6080298 0.63256598
-2.1662941 4.5993729 0.62756598
-0.750094 4.60181 0.62931502
-2.4431331 4.6186771 0.627693
-2.396054 4.6130629 0.63191402
-2.3764861 4.6170998 0.62832701
-2.17132 4.617312 0.63125598
-2.1493249 4.6189699 0.63200003
-0.70857197 4.694479 0.63039899
-0.67933702 4.6922612 0.62348801
-0.672575 4.6864681 0.62082899
-1.005684 4.7244539 0.62124503
-0.70218903 4.7224588 0.63442898
-0.67444402 4.7387681 0.63145697
-0.674824 4.7501469 0.63368398
-0.66474301 4.7641578 0.63410097
0.45717001 -0.84397602 0.64085603
0.46795499 -0.83196002 0.64425302
0.48156601 -0.82242501 0.64867097
0.37434801 -0.81067502 0.63652301
0.392382 -0.80300403 0.64407998
0.40371799 -0.795627 0.64888501
0.73107898 -0.69460797 0.639193
0.61363399 -0.68025702 0.635934
0.62813097 -0.67615998 0.64194
0.74239802 -0.68192899 0.64322901
0.63602602 -0.66180801 0.64062899
0.653669 -0.65171301 0.648265
1.0093 -0.553725 0.636693
0.87392199 -0.547723 0.63562101
0.89863098 -0.54157299 0.64799899
1.030064 -0.54458702 0.64366102
1.040053 -0.53456801 0.64740503
0.89396602 -0.52320701 0.64053899
0.91499698 -0.52539301 0.64831799
1.044462 -0.52649999 0.64931202
1.065497 -0.41736099 0.63704699
1.0782779 -0.406535 0.64011198
1.086642 -0.39594799 0.64225698
1.095708 -0.39530301 0.64418799
1.115954 -0.39223099 0.64859301
1.1616139 -0.38609201 0.64020598
1.17539 -0.39310601 0.64002401
1.207049 -0.38748199 0.63668799
1.327527 -0.39393201 0.64077598
1.180953 -0.37628001 0.64938402
1.225549 -0.38044599 0.64307302
1.339779 -0.382882 0.64532697
1.352497 -0.37800801 0.64940298
1.238205 -0.366494 0.64769399
1.904675 -0.35614899 0.63718897
1.9093111 -0.341598 0.64008999
1.92925 -0.34042001 0.645262
1.941064 -0.344423 0.64777398
1.957558 -0.34060499 0.64075601
1.9174711 -0.33636701 0.64277202
1.975729 -0.33371899 0.64715302
1.514412 -0.303247 0.64683598
2.221976 -0.30389699 0.63637799
2.2330871 -0.29428801 0.64013499
2.2497871 -0.27944601 0.64584398
1.497851 -0.27219501 0.64528799
1.469254 -0.255362 0.63780499
1.449149 -0.235897 0.63653803
1.479719 -0.235315 0.64382303
1.489964 -0.243542 0.64480299
2.2797379 -0.234468 0.64432001
1.463807 -0.22350299 0.64095801
2.2531371 -0.21465901 0.640737
2.2848561 -0.214652 0.64880699
2.368768 -0.210574 0.63721299
2.2171161 -0.19352099 0.63804001
2.389086 -0.199781 0.642389
2.2495639 -0.182962 0.646604
2.4116111 -0.18471301 0.64808297
2.339031 -0.120727 0.63679099
2.3780839 -0.119218 0.64703
2.559289 -0.078056 0.63570797
2.5696421 -0.062996998 0.64123702
2.5877149 -0.050951 0.64807999
2.7377591 -0.033399001 0.63962799
2.755259 -0.020093 0.640791
2.778868 -0.014065 0.64156002
2.4509349 -0.005624 0.63678402
2.7531641 0.005165 0.64842498
2.792541 -0.0043870001 0.64471
2.80813 0.0053920001 0.64830899
2.6614361 0.048048999 0.63615799
2.672173 0.059425998 0.63948399
2.6985171 0.069390997 0.64581698
2.8500669 0.107302 0.63694203
2.8587921 0.112286 0.64010602
2.868803 0.122472 0.64477801
2.881824 0.130077 0.64954603
3.234642 0.25484699 0.64575201
3.2231491 0.278032 0.649432
2.976948 0.29234001 0.64153701
2.942255 0.31367901 0.637752
2.9486761 0.326648 0.64177603
2.9644811 0.332178 0.64578801
2.986264 0.332472 0.64968503
3.2477231 0.33610699 0.63656902
3.2407329 0.35774699 0.63783503
3.098798 0.36683199 0.63836002
3.129293 0.37016299 0.64235198
3.1534519 0.378499 0.64664
3.2296979 0.379338 0.63843501
3.2137239 0.39369801 0.63740599
3.197701 0.407949 0.63636303
3.2013609 0.42215899 0.638583
3.2776239 0.425228 0.64104998
3.203774 0.437096 0.64295
3.190774 0.45047399 0.64005703
3.2021439 0.455055 0.63836199
3.1686449 0.46433699 0.637972
3.154408 0.47678801 0.63704002
3.165715 0.49107799 0.64056098
3.163167 0.505117 0.64175898
3.1408589 0.51858997 0.63961703
