# .PCD v0.7 - Point Cloud Data file format
VERSION 0.7
FIELDS x y z
SIZE 4 4 4
TYPE F F F
COUNT 1 1 1
WIDTH 1596
HEIGHT 1
VIEWPOINT 0 0 0 1 0 0 0
POINTS 1596
DATA ascii
-0.59516454 1.637291 1.008585
-0.118434 1.6192727 1.0457985
-0.56907171 1.6685457 1.0133997
-0.55280203 1.703198 1.016739
-0.390385 1.781365 1.047045
-2.8338346 1.9931664 1.0251545
-2.9294369 2.042779 1.031369
-2.8676386 2.030818 1.0284413
-2.846266 2.0108969 1.032735
-2.9185836 2.0789485 1.0285258
-2.8868589 2.051815 1.019598
-2.9721835 2.1248298 1.0308291
-2.93889 2.1167893 1.028638
-3.0291557 2.181756 1.0316377
-2.9836431 2.1679804 1.0319252
-3.0654571 2.2359016 1.0294544
-3.0296354 2.2235899 1.0301528
-3.1096945 2.2800984 1.031701
-3.0805879 2.2779446 1.0335548
-3.048084 2.2517891 1.040278
-3.1630399 2.3434761 1.0318921
-3.1246941 2.3237538 1.0355167
-4.7010899 2.3983071 1.002048
-3.215101 2.3926001 1.031821
-3.1749732 2.37272 1.0325636
-3.1385415 2.3608923 1.0393666
-4.7076597 2.4253578 1.0063596
-3.2191436 2.4281774 1.0382578
-3.1878953 2.41064 1.0459635
-4.7331877 2.4731488 1.0161958
-3.2655988 2.477356 1.0364341
-3.2422044 2.4651279 1.0380757
-4.7658749 2.5308962 1.0286155
-3.715946 2.5341394 1.0333364
-3.6884604 2.537214 1.0392804
-3.316848 2.530771 1.0342405
-3.2856002 2.5129879 1.0378227
-4.7919421 2.5813847 1.0393505
-3.6623545 2.574595 1.0347284
-4.8187079 2.6064639 1.046924
-3.405323 3.103065 1.005211
-4.923357 3.218508 1.0041749
-5.06638 3.2704835 1.0209024
-5.1110649 3.3376679 1.0419135
-5.0986471 3.3058031 1.0319721
-5.158113 3.7415321 1.036896
-4.2586851 3.7173634 1.0457665
-4.223135 3.7153029 1.04009
-4.1942768 3.7153461 1.035843
-4.1416302 3.817425 1.049281
-5.0087891 3.930794 1.021902
1.180467 3.925983 1.0178699
1.13324 3.9567959 1.024452
-5.2234812 4.04528 1.003004
-5.2262683 4.0753536 1.0109545
-4.7241087 4.0658321 1.022494
-4.6794758 4.0863585 1.0224825
-5.7846899 4.1036901 1.001868
-5.2393551 4.1020732 1.0189331
-4.6852541 4.113678 1.0291179
-4.6163788 4.1246071 1.024515
1.0792921 4.1814418 1.003034
-4.860003 4.241951 1.044845
-5.7033868 4.377326 1.039265
-5.6709628 4.3787379 1.038123
-5.47122 4.3969288 1.002332
-5.4444022 4.38798 1.003075
-5.6719451 4.4076791 1.04444
-5.6278415 4.4131832 1.043704
-5.5886397 4.4290099 1.0287784
-5.5078521 4.4123969 1.012315
-5.4844289 4.4219847 1.004549
-5.5150914 4.4761872 1.0190257
-5.5369148 4.5219636 1.0312176
-4.3400998 4.5182538 1.0126029
0.57570201 4.5210128 1.000734
-5.8716917 4.5698977 1.0021186
-5.8379898 4.5817809 1.005637
-5.5671449 4.5667849 1.0433136
-6.2180734 4.6923962 1.0054605
-6.1866913 4.7293487 1.0191864
-6.1505289 4.7503028 1.027433
-6.1286273 4.7822146 1.0393187
-1.234501 4.7942662 1.001382
-1.2705997 4.8380246 1.0056471
-1.306573 4.882463 1.009495
-1.29568 4.8633938 1.008347
-4.9713378 5.1323881 1.040629
-4.0200481 5.1104798 1.0321145
-3.9786501 5.119472 1.039741
-3.3161061 5.2477341 1.0336061
-3.2958629 5.248837 1.035759
-3.3546751 5.2515721 1.03124
-0.117229 5.385715 1.029127
-5.1396022 5.4915609 1.031554
-0.21900301 5.4889669 1.0116169
-0.188899 5.4743619 1.007664
-3.6285543 5.5189953 1.0173417
-3.5787892 5.5297375 1.0204737
-0.31949601 5.5292678 1.018803
-4.685688 5.5606799 1.0024379
-2.6139481 5.591053 1.00485
-0.331857 5.5799918 1.027069
-0.211677 5.6468949 1.032443
-0.192441 5.6464672 1.0315681
-3.9559975 5.6831827 1.0075785
-3.6121919 5.688601 1.042244
-0.25870699 5.659246 1.036255
-0.2193975 5.6839375 1.038451
-0.18272001 5.6694732 1.0347151
-3.9846809 5.7389398 1.02038
-0.20167001 5.7054729 1.041034
-5.146441 5.7982612 1.00527
-4.0008149 5.7744002 1.028841
-5.1829948 5.8052058 1.00034
-5.1245213 5.8198214 1.0137024
-5.0924187 5.8123884 1.0177054
-4.0222311 5.812665 1.037378
-3.33969 5.8298221 1.003005
-4.041224 5.8507371 1.046221
-3.3393822 5.873579 1.011129
-3.1283953 5.8965011 1.0356668
-3.096699 5.8957992 1.03851
-2.3281345 5.9104414 1.0119824
-0.99533802 6.0413809 1.02839
-0.98810202 6.1056619 1.034516
-3.330797 6.2310309 1.011722
-3.9333236 6.2639108 1.0240813
-3.3517301 6.2719259 1.018724
-3.1563921 6.261868 1.000391
-3.125433 6.2795773 1.0063248
-3.385128 6.3256688 1.027053
-3.069258 6.316638 1.0176606
-3.4252291 6.3867302 1.036196
-2.9188871 6.394949 1.0440476
-2.3365431 6.3919621 1.0004261
-2.2292156 6.3663559 1.0055925
-4.0483632 6.4085841 1.03951
-2.923682 6.4037285 1.0448155
-2.3195541 6.4175105 1.0041503
-2.2736483 6.4305587 1.0086868
-3.485992 6.4693589 1.0476069
-3.1214449 6.687283 1.046618
-3.1787329 6.7245026 1.0385954
-3.1342812 6.7186294 1.02745
-3.080585 6.7169271 1.025432
-3.080934 6.7615285 1.0369484
-1.22129 -3.921319 1.054671
-1.178665 -3.8943851 1.057907
-1.13254 -3.8807211 1.0609925
-1.0822725 -3.8523741 1.0575864
-1.06277 -3.8331189 1.066658
-1.0250659 -3.8198655 1.0622048
-1.336139 -3.797323 1.052305
-0.97524267 -3.7912664 1.0640141
-0.92408824 -3.7675216 1.0705428
-0.87528771 -3.7399979 1.077032
-0.82565671 -3.7140765 1.0790403
-0.787817 -3.702224 1.0754369
-1.399749 -3.6752591 1.052713
-0.76845753 -3.6842856 1.0841351
-0.73329097 -3.6640351 1.0895491
-0.70788199 -3.6404209 1.083575
-0.68666005 -3.631109 1.0919735
-0.63500702 -3.6138039 1.0900915
-0.58198953 -3.5712171 1.0958354
-1.465425 -3.5412331 1.053406
-1.52299 -3.4359951 1.0536669
-1.575573 -3.34796 1.053688
1.4394805 -2.4198329 1.0518789
1.4654701 -2.402631 1.0566045
1.481624 -2.3874519 1.0618269
1.522296 -2.3754177 1.0659654
1.5636775 -2.3558369 1.072836
1.5865104 -2.3353739 1.0776145
1.6307077 -2.3170009 1.0848107
1.483096 -2.2848799 1.091202
1.679812 -2.2914987 1.092904
1.712606 -2.2693105 1.099683
2.4260802 -1.8254499 1.0757132
2.4600749 -1.813913 1.0859981
2.483942 -1.7857084 1.0936995
2.9215069 -1.5017664 1.0676224
2.9456191 -1.487222 1.0750639
2.9708652 -1.4712059 1.0730379
3.0181463 -1.4653734 1.0760487
3.060389 -1.458153 1.074453
3.142621 -1.466143 1.051164
3.082047 -1.4260476 1.0816436
3.1385591 -1.4226316 1.0788873
3.1718607 -1.4278113 1.0597377
3.2222276 -1.4153864 1.0667295
3.264534 -1.402096 1.077049
3.185904 -1.2810431 1.0966541
2.8901124 -1.2134094 1.0534434
3.033855 -1.200627 1.0791354
3.104008 -1.2259901 1.088452
2.93279 -1.1918449 1.062879
2.9799359 -1.1927 1.070783
3.680639 -0.364402 1.051861
3.6446781 -0.30615801 1.05784
3.659251 -0.31294399 1.052954
3.6394949 -0.26733899 1.056568
2.3297379 -0.24143749 1.08769
2.353723 -0.228625 1.0970531
3.6141462 -0.2324035 1.060813
3.574012 -0.1723395 1.063266
3.5434566 -0.117758 1.0664921
3.523278 -0.081950001 1.071769
3.2216549 -0.0053980001 1.0624141
3.4923406 -0.0181145 1.0732034
3.5064681 -0.048815999 1.067698
3.2070737 0.031528 1.0637605
3.4554729 0.040139001 1.075972
3.4237885 0.093798503 1.0789139
-0.253032 1.528692 1.065397
-0.28154799 1.555779 1.060922
-0.077637002 1.5996521 1.0527821
-4.5243554 2.0757849 1.0642049
-4.5567732 2.1336536 1.074188
-4.5499492 2.105294 1.0707051
-4.5800028 2.1782088 1.0818343
-4.609859 2.2201855 1.090536
-4.6256824 2.2636154 1.0972147
-3.2899621 2.534389 1.051185
-3.662324 2.560955 1.051548
-4.816535 2.6342289 1.050405
-4.8404741 2.6724885 1.0595565
-4.874639 2.7228355 1.0722258
-4.9066458 2.7905359 1.087397
-4.8914795 2.7698789 1.0818435
-4.9240685 2.8195729 1.0946472
-5.1321406 3.3818893 1.0557755
-5.1529589 3.4259124 1.0696321
-5.1753926 3.4705961 1.083761
-5.2231202 3.510242 1.096442
-4.369668 3.734442 1.065791
-4.3263264 3.7268915 1.0577691
-4.286778 3.722651 1.051019
-4.4376822 3.821876 1.0947061
-4.3741431 3.8196819 1.084648
-4.3263402 3.8119881 1.075799
-4.2861428 3.8071079 1.068717
-4.2331343 3.8069785 1.0607475
-4.977705 3.9326954 1.082639
-0.28933099 3.968029 1.099368
-5.284584 4.0878701 1.08937
1.114247 4.0860329 1.058442
-5.2610779 4.1075678 1.0914201
-4.656209 4.1033568 1.074509
-4.6281328 4.1057 1.071347
-4.5809569 4.1351271 1.071077
1.069436 4.1807022 1.069129
-5.416584 4.240428 1.0904
1.062132 4.2468758 1.0797631
-5.4398069 4.2576122 1.096678
1.071447 4.2733798 1.086249
-5.6084719 4.467659 1.0547529
-5.577343 4.5956812 1.050985
-5.6199031 4.643147 1.063991
-5.5898671 4.617588 1.05688
-5.6281834 4.6759682 1.0726891
0.89887899 4.6732602 1.055986
-5.6525931 4.7188749 1.084276
-5.6473551 4.7038312 1.080258
-5.9052191 4.7972369 1.063521
-6.1024261 4.8107562 1.050163
-6.0761318 4.8267984 1.056596
-5.8911691 4.8126888 1.0679131
-6.055408 4.8721881 1.0734906
-6.0240598 4.8964152 1.083122
-5.9147906 4.8757243 1.0829047
-5.8576241 4.8664951 1.083096
-6.0116534 4.9238601 1.093436
-5.91852 4.9055061 1.089572
-4.8832898 5.142972 1.067934
-4.8262529 5.1458755 1.0619737
-3.390352 5.3730812 1.059809
-0.208489 5.4474058 1.075386
-3.6315372 5.4798265 1.0812896
-3.5874577 5.4845753 1.0838234
-3.546782 5.4715562 1.081529
-0.21534474 5.4706573 1.0806434
-0.18779001 5.4520421 1.076395
-3.5631311 5.5143809 1.097659
-3.53002 5.5046229 1.097055
-0.198441 5.503624 1.088048
-5.3438778 5.5772305 1.0547105
-3.588191 5.6630812 1.054985
-4.6799049 5.7220769 1.0813733
-4.6566548 5.7681918 1.091429
-3.325943 5.7917299 1.086472
-5.1747112 5.8367648 1.074209
-4.6512709 5.8003511 1.098388
-2.8798795 5.8287325 1.0829495
-4.0573711 5.8858261 1.054577
-2.8328731 5.856545 1.084744
-4.0872741 5.9324002 1.064409
-2.9215741 5.9177089 1.082365
-4.1314211 5.9897971 1.075438
-2.901768 5.952673 1.082052
-2.8504741 6.0118961 1.07868
-2.8160069 6.0536098 1.076566
-3.713414 6.3494549 1.062004
-3.718116 6.3783741 1.066852
-3.6697247 6.378118 1.0715014
-3.6204183 6.3918052 1.0787354
-3.6199479 6.4046679 1.081121
-3.593709 6.4155502 1.085592
-2.838275 6.4418149 1.058322
-3.4770155 6.492939 1.0547535
-2.84026 6.478539 1.063213
-2.523865 6.5991721 1.0873179
-2.5148449 6.6127429 1.0898
-2.558316 6.6949878 1.09749
-3.052269 6.7174282 1.0577331
-3.0312119 6.7422457 1.0632553
-2.7686031 6.7437749 1.087191
-2.7444019 6.7141628 1.085201
-2.5816784 6.7242832 1.099622
-3.148201 6.7686071 1.055557
-2.9774911 6.7689285 1.072068
-2.947582 6.7892628 1.077665
-2.974365 6.8045168 1.070011
-0.66522801 -3.617466 1.100446
-0.62548202 -3.5870624 1.104466
-0.56512398 -3.5682874 1.109657
-0.52618331 -3.5370162 1.105659
-0.48318768 -3.5165749 1.113889
-0.458119 -3.4941101 1.108817
-0.42252049 -3.4787872 1.1182837
-0.37973648 -3.4607151 1.1225185
-0.36176801 -3.441057 1.1305389
-0.32564527 -3.4284096 1.1283273
-0.28643298 -3.4036365 1.1326849
-0.25869352 -3.3863506 1.135793
-0.22111 -3.373641 1.1377963
-0.188144 -3.3518214 1.1434565
1.5233384 -2.2718439 1.1074972
1.578941 -2.2519591 1.130163
1.731915 -2.258513 1.104481
1.752226 -2.2577851 1.104472
1.544825 -2.2375901 1.116385
1.595142 -2.2360549 1.136888
1.6142094 -2.2111781 1.144901
1.7678266 -2.2349906 1.1106656
1.8247719 -2.2144399 1.1192906
1.8804904 -2.1858802 1.129329
1.9277817 -2.1575224 1.1380683
1.9621511 -2.1541259 1.143989
1.977519 -2.131881 1.147483
2.1886725 -2.0295043 1.1197104
2.214046 -2.003716 1.125324
2.5253506 -1.7829341 1.1062063
2.5705957 -1.7613304 1.120424
3.0376954 -1.434112 1.1035204
3.0782423 -1.4092407 1.1163356
2.375268 -0.221385 1.104982
-3.722662 1.3766969 1.103763
-3.9681194 1.4413681 1.1231323
-3.9236443 1.4401031 1.118618
-3.8724356 1.4428183 1.1203527
-3.825542 1.441106 1.107
-3.760885 1.449263 1.106028
-3.7379 1.4215837 1.114017
-4.004313 1.489939 1.1129251
-3.9904239 1.4664923 1.1244797
-3.9315486 1.4522935 1.1191725
-3.868165 1.4603263 1.1130087
-3.8265698 1.4626701 1.1184938
-3.7780387 1.4647862 1.1170045
-3.996464 1.633405 1.134882
-4.002583 1.680276 1.1268749
-0.071512997 1.661895 1.1102796
-0.029012 1.654721 1.114695
-2.9513471 2.096103 1.134781
-2.9329586 2.077554 1.1422369
-2.9808846 2.1332986 1.1398318
-3.0120366 2.1753414 1.1438396
-3.064908 2.2366285 1.1373305
-3.0389397 2.2104561 1.1412972
-4.6573672 2.2992589 1.106022
-4.6376681 2.292778 1.102015
-3.10133 2.289417 1.133708
-3.0905361 2.2778115 1.1447289
-4.6673994 2.3325403 1.1110251
-3.1633978 2.340487 1.1401392
-3.1273696 2.3172109 1.1407793
-4.7031941 2.39973 1.124115
-4.6927681 2.375082 1.1197336
-3.204493 2.3903356 1.1401285
-3.1913741 2.3736551 1.147508
-4.7208176 2.4306099 1.1305115
-3.2341151 2.4283688 1.1402371
-4.7524261 2.4717445 1.14066
-4.7492819 2.4704969 1.139943
-3.6970201 2.4922249 1.129775
-3.2702756 2.4747102 1.1385599
-4.774827 2.5011439 1.148007
-3.6741233 2.5278392 1.1402502
-3.3160019 2.5302918 1.135702
-3.2918005 2.5065789 1.1482251
-3.6274879 2.5677185 1.1402669
-3.3370178 2.563024 1.1436104
-4.9411998 2.8418851 1.1008869
-4.9617796 2.8757648 1.1095874
-4.9494748 2.88219 1.108515
-4.990171 2.9252844 1.1221813
-5.0135994 2.9747984 1.1341765
-5.0371346 3.0113099 1.1442354
-4.3112278 3.4742029 1.1465353
-4.295753 3.48191 1.145789
-5.2048879 3.5284879 1.102149
-5.2276297 3.5642641 1.1135786
-5.2741475 3.6263199 1.1335011
-5.286746 3.671293 1.147936
-5.0969992 3.744566 1.131536
0.693748 3.7946651 1.128969
0.73223835 3.7796195 1.1274587
-4.448276 3.847121 1.101836
0.74524748 3.818336 1.138731
-4.4801097 3.8719947 1.112183
-4.934392 3.922332 1.137247
-4.5264678 3.9256182 1.1313219
-4.8552971 3.970562 1.13319
-4.565392 3.96872 1.147157
-4.5446458 3.962924 1.142638
-4.8116641 4.012116 1.133633
-0.27669466 4.0187359 1.1204666
-4.6214371 4.0919814 1.117631
-4.6305661 4.1062479 1.1215355
1.339552 4.1092949 1.103345
-0.51663035 4.1788058 1.1100487
1.05746 4.1974368 1.1394399
1.345356 4.1604018 1.11368
-4.8168931 4.2489071 1.148217
-4.7886395 4.2284651 1.139695
-5.4689221 4.274251 1.1033159
-5.4461002 4.2926893 1.1061345
1.18826 4.260087 1.131573
-5.4677458 4.3266997 1.1177051
-4.8343229 4.328146 1.147164
0.32415748 4.3351164 1.1103865
0.36179799 4.3479209 1.116027
-5.4806514 4.3713145 1.130649
0.33664101 4.3568592 1.102324
0.36300799 4.3679152 1.121964
-5.5097098 4.4180026 1.1451789
-5.4930081 4.4177551 1.14226
-4.3614869 4.507772 1.111852
-4.327229 4.5157452 1.1123019
0.88790298 4.6628151 1.146582
0.91264749 4.6560664 1.1462336
-0.320333 4.8827038 1.115366
-5.9379091 4.9472628 1.104207
-5.9481668 4.981513 1.116403
-5.8229446 4.9901218 1.117739
-5.9582262 5.015862 1.128659
-5.8030081 5.0148149 1.124905
-5.7843628 5.0407324 1.132422
-5.9798579 5.0606079 1.144365
-5.7598062 5.0612159 1.138546
-5.7401628 5.0862608 1.1458914
-5.5226278 5.0639682 1.143725
-4.946918 5.0537581 1.112797
-4.6845255 5.333241 1.1150146
-4.66541 5.351089 1.121425
-4.6426558 5.3748717 1.1298406
-3.513037 5.399693 1.132512
-3.471086 5.3914919 1.13011
-4.6173801 5.4086685 1.1414435
-4.5956411 5.4239569 1.14727
-3.6223185 5.4253607 1.1400385
-3.578666 5.414104 1.13674
-3.5402529 5.4055071 1.1342165
-0.801871 5.4248519 1.109622
-0.78368598 5.4386492 1.116966
-0.19581801 5.4427691 1.147877
-0.757797 5.4959641 1.136873
-0.53954798 5.4575782 1.1454149
-3.546953 5.5340781 1.10324
-4.4555411 5.5584092 1.126225
-4.4391255 5.5840263 1.1364155
-3.5541687 5.5641556 1.1100819
-0.2247425 5.6382999 1.1080365
-0.2296755 5.6584349 1.111775
-5.1644135 5.7850165 1.1281987
-3.5294051 5.9625769 1.141065
-3.9687743 6.0836611 1.1287575
-3.932821 6.1071424 1.1414285
-3.893858 6.115109 1.149772
-2.7356832 6.1875114 1.104925
-2.7621319 6.2290745 1.1274797
-2.7229791 6.2321968 1.1239715
-2.6854761 6.2123947 1.1218435
-1.9148901 6.2738471 1.140252
-3.0309169 6.334826 1.142941
-2.6152148 6.3295455 1.1478115
-2.6197472 6.7721443 1.103092
-2.6767426 6.8275032 1.1188049
-2.8865271 6.8527212 1.100543
-2.7879939 6.8867579 1.1295609
-2.713928 6.8633337 1.1078975
-2.6853976 6.8753567 1.12095
-0.16318899 -3.3460381 1.151245
-0.124235 -3.319304 1.155822
0.0032629999 -3.261379 1.169907
0.027192334 -3.2415638 1.1664473
0.075439751 -3.2146637 1.173963
0.113755 -3.2021389 1.182994
0.13012651 -3.1859934 1.180589
0.16452099 -3.1689842 1.1832618
0.187116 -3.1448879 1.192775
0.21718502 -3.1368148 1.1901025
0.87789601 -2.8130884 1.1554589
0.91870916 -2.765367 1.1683657
0.97824597 -2.7696781 1.168918
1.658134 -2.2115178 1.162923
1.6723135 -2.1813464 1.1691101
1.709056 -2.1746194 1.184382
1.7305523 -2.140173 1.1938037
1.998825 -2.1200869 1.150767
2.024596 -2.11005 1.1563084
2.0644169 -2.1049459 1.161096
2.07919 -2.086494 1.1656725
2.1154237 -2.0710759 1.1722809
2.138622 -2.0468371 1.17738
2.1718063 -2.0400975 1.183138
2.2166433 -2.0191123 1.1912413
2.2532561 -2.0179191 1.196642
2.5305183 -1.8357891 1.1890727
3.835216 -0.80846 1.19963
-2.915668 2.0762279 1.150105
-4.8025818 2.5439341 1.158011
-4.7750249 2.5380926 1.15224
-4.8107381 2.5833094 1.1641667
-4.7995019 2.579262 1.161572
-4.8362689 2.6250217 1.1739923
-4.8577676 2.6712399 1.1838113
-4.8813796 2.7203894 1.194644
-5.0511298 3.040252 1.151495
-4.726006 3.038609 1.155192
-5.0744987 3.0714743 1.1608649
-4.719666 3.0750611 1.1662407
-5.1244049 3.1477821 1.182899
-5.0981932 3.1122265 1.1720409
-4.7069783 3.1198969 1.1797049
-4.6885309 3.145154 1.186869
-5.1622849 3.1978159 1.198579
-5.1318474 3.1784279 1.1896801
-4.6991458 3.165349 1.193665
-4.5055251 3.411505 1.1633
-5.034194 3.4971509 1.1708879
0.31499851 3.4683745 1.1746185
-5.0408368 3.525938 1.184016
-4.3138795 3.5283241 1.1589392
-4.3326139 3.5790415 1.1733445
0.64632797 3.5667961 1.188812
0.691796 3.5504689 1.194204
-4.5736918 3.6426129 1.176707
-4.5241179 3.6303921 1.1651709
-4.4942417 3.618005 1.157263
-4.3619652 3.641571 1.1923815
-4.3392048 3.6186161 1.1834445
0.57366902 3.648582 1.193036
-4.357512 3.6632514 1.1967295
0.60179001 3.6513519 1.199337
-5.3666801 3.7306139 1.167215
-5.3402929 3.7043431 1.158691
-5.3829174 3.7882967 1.1858995
-5.3458338 3.8120079 1.193532
-4.9694719 3.8347106 1.192678
-4.948431 3.8405199 1.189652
-4.9758315 3.8565121 1.1972646
-2.3189449 3.889487 1.160202
0.76116598 3.8650129 1.152107
-4.8652058 3.9028909 1.183758
-2.3386574 3.912499 1.1683326
-4.5782619 3.9758289 1.150779
-4.6286054 4.0840569 1.167614
-4.5988598 4.098413 1.1643209
1.300848 4.0619888 1.154337
1.3167731 4.1018252 1.1658961
0.84570098 4.2399187 1.1910845
-4.8609333 4.2914629 1.164295
-4.8151317 4.2684336 1.1529673
0.82861352 4.281014 1.19699
1.073908 4.2600441 1.156119
-4.8312631 4.3205705 1.1969581
-4.904983 4.3848772 1.19371
-4.8793254 4.3629818 1.1849445
-5.5680327 4.4797902 1.1649576
-5.5364132 4.465445 1.1594684
-5.5706968 4.5263181 1.1776953
-5.6093211 4.5796247 1.1938347
-5.5800729 4.6590509 1.151358
0.9089905 4.6822939 1.152765
-5.606111 4.714097 1.160118
-5.6363521 4.773212 1.169817
-5.6700978 4.8341689 1.180142
-5.671174 4.8693752 1.1838959
0.98703098 4.8753772 1.179365
-6.0653582 4.9358301 1.1766829
0.97105837 4.9303074 1.1862854
-5.967546 4.9936509 1.185444
-5.7303491 4.9550352 1.199852
-5.5274849 4.9782834 1.1654074
-5.483408 4.9826598 1.1648591
0.95377702 4.962245 1.188803
-5.9378619 5.0149908 1.1890025
-5.8979402 5.0268579 1.190079
-5.4548841 5.0181031 1.171958
-5.4713459 5.0823164 1.187186
-5.2803783 5.0791426 1.1803346
-5.7120733 5.117949 1.155282
-5.6942348 5.1448259 1.16317
-5.548193 5.1181712 1.158535
-5.473022 5.1305461 1.19829
-0.56022549 5.1261725 1.1742024
-0.54368699 5.147758 1.181855
-5.670464 5.151298 1.165449
-5.6452889 5.1562839 1.167348
-5.5817828 5.1809111 1.175611
-5.302597 5.1502581 1.197471
-0.50685602 5.1846008 1.195704
-5.5683289 5.2280664 1.1892914
-5.543148 5.2616491 1.199409
-3.5182471 5.3810639 1.1968665
-3.476275 5.3734131 1.193185
-4.593286 5.4408598 1.152529
-0.60895503 5.49546 1.170874
-0.5818727 5.4721718 1.170892
-0.53438431 5.47609 1.1799809
-0.31176099 5.4972348 1.186559
-0.29181647 5.4727936 1.1841016
-0.217664 5.4576988 1.150923
-0.18972801 5.458621 1.151947
-2.6141031 5.542098 1.166696
-1.412115 5.545557 1.181402
-0.63285899 5.532187 1.1749687
-0.57289898 5.5233588 1.1834811
-0.356677 5.5368662 1.188756
-0.33598599 5.5075502 1.185328
-2.601563 5.5520091 1.171726
-0.67463368 5.5646577 1.1741095
-0.62873137 5.5763893 1.1847221
-0.59925699 5.5552268 1.18577
-0.38395667 5.5769691 1.1936064
-1.442229 5.626616 1.198597
-0.71500504 5.62572 1.179723
-0.67700297 5.6187019 1.1855147
-0.41960001 5.6142244 1.196653
-0.21411933 5.6249986 1.182361
-0.73668504 5.6678071 1.186819
-0.69685602 5.6536741 1.1894571
-0.219961 5.6568251 1.1889941
-4.783215 5.866888 1.1989141
-0.081816249 5.870966 1.1935595
-3.8588066 6.1258793 1.158402
-3.833071 6.1439261 1.167884
-3.810714 6.1516619 1.173667
-3.7725511 6.1592503 1.1818075
-3.743613 6.1742282 1.190848
-2.8896711 6.2960901 1.1563801
-3.766094 6.3043242 1.1618479
-3.7256615 6.3304234 1.1703675
-3.668011 6.3488069 1.178499
-3.014746 6.3068838 1.170246
-2.9729011 6.3428593 1.1692945
-2.9226036 6.3286724 1.1629391
-2.8903279 6.3188729 1.158577
-2.6231551 6.3364301 1.150167
-3.6718316 6.3572388 1.1799874
-3.6203744 6.3807735 1.1886873
-3.0630579 6.3946819 1.154318
-2.9696746 6.3686166 1.171242
-2.9499049 6.3703699 1.169461
-3.5953059 6.404285 1.1954269
-2.5715494 6.4267273 1.1914325
-2.5463095 6.4179373 1.1872439
-3.0800304 6.4664397 1.1718663
-3.0350256 6.4872885 1.1860175
-2.6097729 6.4553971 1.199729
-2.5964231 6.4568477 1.1984205
-3.017036 6.51123 1.196165
-2.9844739 6.5027161 1.199622
-2.570991 6.6315002 1.1718035
-2.6041911 6.6870761 1.178901
-2.6226699 6.705554 1.180752
-2.8375015 6.8966913 1.1978586
0.42625067 -3.0334511 1.2198321
0.46735001 -3.0107253 1.2227373
0.491227 -2.987808 1.231775
0.52031231 -2.9788325 1.2302086
0.556045 -2.963655 1.2362605
0.58322203 -2.9485304 1.2400935
0.62172896 -2.9302809 1.2441964
0.66870201 -2.9001081 1.248806
1.210289 -2.6095009 1.2021534
1.1999429 -2.5973761 1.234055
1.2366494 -2.5841432 1.2269151
1.2725443 -2.5700083 1.2248989
1.3047611 -2.5588901 1.216396
1.293957 -2.5376091 1.235859
1.332976 -2.5456259 1.240851
1.355826 -2.525871 1.245658
1.7748725 -2.1291976 1.2124491
1.8150116 -2.1146696 1.2295136
1.8734254 -2.0827105 1.246253
2.4747109 -1.8257886 1.2105237
2.5253789 -1.811978 1.22061
3.846154 -0.818856 1.245086
3.7961049 -0.73822498 1.206287
3.7414291 -0.65851998 1.212283
3.6951711 -0.584108 1.2186379
3.6668949 -0.52220303 1.2255239
-0.51134199 1.536393 1.212373
-0.5895375 1.580265 1.2125604
-0.51169902 1.562286 1.215286
-0.48608199 1.5806986 1.221048
-0.57515496 1.6257931 1.2196475
-0.504987 1.642853 1.231321
-0.56135499 1.65763 1.225166
-0.54004103 1.657482 1.22811
-0.48631251 1.6578345 1.2356745
-4.9127712 2.7481661 1.204392
-4.9260111 2.783782 1.2117684
-4.9539752 2.8402579 1.225089
-4.9359016 2.8210325 1.2188184
-4.9715738 2.8808928 1.2343838
-5.0056729 2.9345541 1.2491
-4.9947715 2.9147234 1.2439656
-4.7214961 3.1874311 1.201551
-5.1676559 3.2315516 1.2056999
-4.75214 3.229851 1.216247
-4.7393999 3.2273679 1.2149495
-5.1827192 3.272541 1.220705
-4.8112316 3.2860889 1.236573
-5.2215967 3.3208215 1.2321143
-4.8105841 3.3146939 1.245716
-5.2430062 3.3524721 1.242067
0.760764 3.524837 1.202196
0.71351701 3.5620699 1.20119
0.70018703 3.643925 1.2174031
-4.3822079 3.6851885 1.2058283
0.70286328 3.6699641 1.2240597
-4.4064116 3.7336195 1.2212191
-4.3881292 3.7112851 1.212955
0.70656598 3.7112012 1.234581
-4.4334402 3.7725792 1.2349546
0.71001798 3.7619934 1.247499
-4.4602013 3.8054876 1.2472765
-5.0080738 3.8974929 1.209951
-4.9873981 3.8707623 1.2017014
-0.26383734 3.9390495 1.2255553
-0.22224274 3.9206347 1.2309725
-4.7807164 3.9759722 1.2364244
-4.7479868 3.9796259 1.229898
-0.35951751 3.9814997 1.210393
-0.31821799 3.9827225 1.227438
-0.28856131 3.9558203 1.2250704
-5.0162392 4.0158911 1.249036
-4.8054199 4.0068879 1.245946
-4.7920809 4.002625 1.2424411
0.38865829 4.0270467 1.2316015
-5.2463999 4.069778 1.219383
-4.6179018 4.0800009 1.2152345
0.382007 4.061934 1.238582
0.777318 4.0988221 1.229038
-4.5409188 4.1300511 1.20538
0.37595701 4.1102128 1.2490571
0.7077595 4.1284184 1.224507
0.779392 4.1351261 1.2384191
0.80546498 4.1052928 1.235449
-4.665606 4.1839108 1.236437
-4.618546 4.1828895 1.2369444
-4.5883288 4.1974902 1.243951
0.70887798 4.150352 1.23017
-5.1327953 4.2904873 1.2219385
0.34774199 4.2763181 1.224231
-5.1252799 4.3289247 1.2315255
0.35527301 4.3346772 1.242597
-5.1156268 4.3796611 1.24429
0.77554631 4.3746014 1.2063901
0.80092603 4.392663 1.214565
-5.1001081 4.4042039 1.2495559
-5.0570321 4.4104218 1.2474999
0.74423075 4.4302974 1.2125456
0.77010328 4.4253039 1.216194
-4.3597078 4.4980488 1.211424
0.72833955 4.4777956 1.2199228
-4.3498821 4.5058718 1.2127661
0.72942948 4.5098634 1.2261496
-6.5187211 4.6333508 1.207321
-5.6312556 4.6239309 1.2067779
-6.5160208 4.6680527 1.2201409
-6.4780388 4.6780171 1.223393
-5.6563053 4.6735258 1.2213376
0.54709899 4.6838188 1.226036
-6.479732 4.703752 1.2330019
-6.4329734 4.7070694 1.2337605
-6.3925447 4.726862 1.240808
-5.6802092 4.709465 1.2322049
0.54553002 4.7421741 1.243144
0.56370848 4.7284527 1.244012
-4.812809 4.9962301 1.224491
-5.7487702 5.0061421 1.207361
-4.8312998 5.0261879 1.208913
-5.7772989 5.066556 1.21706
-0.56350499 5.0780091 1.232159
-0.0042880001 5.053494 1.205627
0.041255001 5.0772629 1.2165101
-5.814362 5.1350732 1.228637
-5.7678404 5.1142683 1.204783
-0.534266 5.1243968 1.247986
0.096031003 5.1043482 1.229187
0.18928801 5.1463251 1.249625
-5.8593001 5.2480259 1.245844
-5.8495388 5.2025981 1.2399
-5.6706772 5.2235918 1.221128
-5.5150671 5.2068062 1.217163
-3.352175 5.2006478 1.212855
-3.3240376 5.2182002 1.2235874
-5.8541479 5.280354 1.24866
-5.7001991 5.2876878 1.231452
-5.5164852 5.2645202 1.200837
-5.4874296 5.2799149 1.2059195
-5.840066 5.3047419 1.249599
-5.798192 5.3037629 1.244593
-5.7177949 5.3412652 1.239274
-5.4592028 5.3113379 1.2156035
-5.7102909 5.3867617 1.243341
-4.7814837 5.382534 1.2392805
-5.6675534 5.4217129 1.2422465
-5.6199231 5.432786 1.238023
-5.5910168 5.4427261 1.235832
-4.773591 5.4262838 1.24967
-4.6224251 5.4101701 1.243053
-4.570765 5.413908 1.2431221
-3.6001639 5.4048519 1.206804
-3.579648 5.4000988 1.204684
-5.5673618 5.4767647 1.2369275
-5.527153 5.4963679 1.234581
-5.4834557 5.5093327 1.2311395
-4.6158743 5.5225854 1.2118704
-4.5709362 5.5044541 1.209464
-1.2236631 5.5030589 1.2340515
-1.198099 5.542768 1.2476881
-4.6038179 5.584013 1.235823
-4.595582 5.6046252 1.24429
-1.425814 5.6446152 1.207237
-1.457667 5.6699719 1.2079411
-0.48576099 5.694984 1.204896
-0.43312201 5.6871748 1.210658
-0.75691801 5.7394161 1.200618
-0.44580299 5.7232289 1.216732
-0.52530301 5.7868371 1.21938
-4.6797452 5.9491549 1.226925
-0.062049001 5.922276 1.203655
-4.6505761 5.956284 1.232685
-4.6147652 5.9588618 1.2377501
-4.5922699 5.9700761 1.244071
-0.078205496 5.96241 1.2088566
-2.4671021 6.0851679 1.217036
-2.4477899 6.0652809 1.21324
-2.462184 6.1445141 1.231409
-2.403769 6.1201239 1.230104
-2.986222 6.2850151 1.215436
-2.967483 6.5122461 1.205446
-2.9356358 6.5335422 1.2173556
-2.8853974 6.5483236 1.2307355
-2.805846 6.5472751 1.231397
-2.7814689 6.5375643 1.227964
-2.8551102 6.5726652 1.2425184
-2.8265147 6.5627441 1.2351137
-2.3673763 6.7660079 1.2071344
-2.407994 6.8404822 1.2170939
-2.395592 6.822629 1.2148679
0.62891197 -2.9193101 1.250427
0.66013002 -2.9119101 1.254316
0.68922102 -2.8848729 1.255564
0.72786069 -2.8755438 1.2616781
0.76111555 -2.8562803 1.2654696
0.78999949 -2.8427382 1.269624
0.82847631 -2.8168631 1.2756562
0.86653399 -2.8055971 1.27773
0.884561 -2.7922859 1.2838271
0.92495102 -2.7698736 1.290031
0.95978397 -2.750782 1.298333
0.96702898 -2.7343459 1.294361
1.001875 -2.732559 1.298841
1.3829989 -2.512723 1.2506109
1.4186225 -2.486568 1.2578455
1.483148 -2.479208 1.2679315
1.518062 -2.45052 1.275394
1.538211 -2.4269049 1.280298
1.5719219 -2.42296 1.2856849
1.617862 -2.412719 1.2934721
1.8802961 -2.0670598 1.257996
1.9218564 -2.0616138 1.2629176
1.9327874 -2.0450745 1.2775595
1.9684521 -2.0231986 1.2887813
4.0087051 -0.9808895 1.2793291
3.831389 -0.78632599 1.2550499
3.9240329 -0.79263198 1.2866271
3.8105831 -0.74836302 1.25186
3.892911 -0.73348498 1.288106
3.7612185 -0.67891449 1.2597816
3.838697 -0.65514803 1.287619
3.694901 -0.58408302 1.266266
3.761198 -0.55785698 1.285097
3.663275 -0.52900201 1.274222
3.729671 -0.50193399 1.2861429
3.1341529 -0.0082820002 1.278107
2.640285 0.91506898 1.289506
-0.56475949 1.5636555 1.2937555
-0.54803902 1.577237 1.298069
-0.27964601 1.562284 1.253888
-0.3117775 1.6433206 1.253876
-0.134664 1.626621 1.2785625
-0.26804665 1.6567984 1.2620677
-0.21570501 1.6512851 1.269287
-0.192518 1.651347 1.272817
-5.0232062 2.9451139 1.254244
-5.0568719 2.9921319 1.268281
-5.0221844 2.9766185 1.2587857
-5.0737376 3.0343559 1.2783504
-5.0496321 3.0138569 1.270147
-5.092977 3.0790012 1.2894689
2.3938661 3.1732349 1.299552
-4.8675709 3.34392 1.257394
-4.890286 3.3761384 1.2686965
-4.8770871 3.41363 1.280329
-5.3207092 3.4987891 1.285412
-5.295414 3.481601 1.277238
0.30163002 3.4869995 1.2945986
-5.3348651 3.5357363 1.2956424
-4.4793448 3.8328676 1.257104
-4.5108318 3.8703713 1.2714995
-4.498857 3.8562689 1.266048
2.2339909 3.9036579 1.276142
-5.3534341 3.9855955 1.2724915
-5.476099 4.0101891 1.297379
-5.358901 4.0111561 1.279483
-4.8259892 4.0334973 1.254231
-5.1543164 4.0812063 1.2718251
-5.1387372 4.055264 1.263678
-5.0466075 4.0830402 1.2618201
-4.8594785 4.0771871 1.2682006
-4.8406076 4.0660524 1.262233
0.402787 4.099144 1.251922
-4.8473439 4.114305 1.271049
-5.0631828 4.160255 1.267597
-4.5754013 4.2285442 1.2578135
0.36211899 4.245091 1.287956
-4.5600672 4.259016 1.271488
-4.5384665 4.2819233 1.2820015
-4.515326 4.3034339 1.29195
-4.499176 4.3156972 1.297696
-5.0670891 4.4235058 1.251915
-5.0269232 4.4361553 1.2518675
-4.9249477 4.4282498 1.2873886
-4.9979501 4.4634137 1.2567854
-5.0018029 4.543829 1.279182
-4.9901638 4.5165429 1.270667
-4.148807 4.5263982 1.297461
-5.0177155 4.5820432 1.291121
-4.9858561 4.553009 1.280346
-5.0038109 4.6033468 1.295845
-6.367722 4.7578659 1.2522845
-6.325532 4.7758327 1.2587895
-6.3138399 4.8042102 1.269495
-6.269155 4.8198009 1.2752279
-6.235218 4.8433928 1.28413
-6.2235489 4.8592768 1.290197
-6.1838531 4.8654795 1.2925124
-6.1411729 4.8689871 1.293824
0.95429897 4.8806572 1.2685241
-5.1548572 4.9417462 1.29864
0.93734694 4.9312363 1.2762917
0.91987902 4.9569831 1.27856
-4.9791331 5.007031 1.292356
-4.8359652 5.0435581 1.282797
-0.264938 5.091208 1.267619
-0.527605 5.1313901 1.250543
-0.27882248 5.1364117 1.2769589
-5.2725558 5.1759782 1.2652611
-0.31617451 5.1842232 1.2833675
-0.29729399 5.1588478 1.279815
0.250884 5.1773672 1.264045
-5.2085972 5.221766 1.2757621
-0.33211499 5.2285709 1.292207
0.2912305 5.2229357 1.280496
0.31517148 5.2264872 1.2837346
-0.35654899 5.2658281 1.29796
-0.34311101 5.250896 1.296209
-0.70347899 5.3860769 1.288208
-0.75497103 5.445931 1.29396
-0.72919172 5.4154358 1.290918
-0.359979 5.404696 1.27315
-4.5774689 5.4968019 1.26345
-2.4591606 5.4886432 1.27446
-0.77682298 5.4639683 1.294445
-0.82158601 5.514204 1.298849
-4.4496469 5.5829611 1.282892
-1.147908 5.5927629 1.267332
-0.20701833 5.5901856 1.2726721
-0.17085068 5.575563 1.2853831
-4.5992322 5.642858 1.258162
-0.98290497 5.6172638 1.292998
-0.22644252 5.6191931 1.271561
-0.18292451 5.6248779 1.293872
-0.24563 5.6649499 1.293717
-2.360981 5.7981639 1.265123
-2.7649691 5.8189092 1.292253
-2.371861 5.8150988 1.270063
-2.4179964 5.8710909 1.2861203
-0.177707 5.89114 1.291757
-4.5634456 5.9900141 1.254007
-2.4784713 6.0290136 1.2676697
-3.6590476 6.3615837 1.2950455
-3.6497929 6.3787322 1.299583
-2.8180995 6.5859489 1.2538071
-2.788362 6.594708 1.261741
-2.7663631 6.6123385 1.270826
-2.7324104 6.6303349 1.282196
-2.6765471 6.636425 1.2941322
-2.3848789 6.7762122 1.2959867
-2.8269081 6.8791428 1.291518
-2.787719 6.9041195 1.2989905
0.98664802 -2.7352049 1.302514
1.0280703 -2.7117183 1.3062223
1.0750256 -2.6920145 1.3133066
1.1205026 -2.6646671 1.320766
1.147692 -2.6415639 1.32819
1.17454 -2.6350317 1.328301
1.2187257 -2.6116116 1.3375449
1.242911 -2.5912039 1.338906
1.269978 -2.59236 1.3447216
1.301561 -2.570708 1.348091
1.647658 -2.379364 1.300745
1.674403 -2.3651619 1.3060189
1.7202826 -2.351773 1.314217
1.775892 -2.3272455 1.3249359
1.8236744 -2.2918339 1.3354645
1.872354 -2.2815681 1.344058
1.901214 -2.269747 1.349686
1.980938 -2.008709 1.302266
2.0280771 -2.009727 1.319186
2.0281043 -1.9777634 1.310333
2.0721514 -1.9696414 1.3360634
2.0630419 -1.930066 1.339975
2.101126 -1.946586 1.34272
3.029953 -1.3775297 1.3140246
3.7189026 -1.0686717 1.3236563
3.7691746 -1.03827 1.3411474
3.870476 -0.74430001 1.306313
3.8444779 -0.688739 1.308356
3.7783811 -0.597009 1.307258
3.7276349 -0.51788998 1.3075449
2.8857336 0.46919399 1.345176
-0.2478845 1.488157 1.3429389
-0.244899 1.5300435 1.3480325
-0.53520501 1.596892 1.302345
-0.47636801 1.576206 1.3107259
-5.1838679 2.998405 1.327031
-5.1903181 3.0308568 1.3362156
-5.2044921 3.0619919 1.3461699
0.481132 3.4849651 1.3132319
-5.2729902 3.5299189 1.333744
0.27490965 3.5141609 1.307325
-5.3579321 3.5740986 1.3079375
-5.3202524 3.6245406 1.3115684
-5.3200436 3.6605513 1.3192426
-5.2197428 3.7041459 1.309835
-5.1709375 3.7399485 1.3084631
-5.2092381 3.7885976 1.3264434
-5.1888132 3.7615776 1.316587
-5.2534256 3.8349714 1.345251
-5.2354822 3.8089514 1.3359671
-5.6067605 4.0347648 1.3235871
-5.528224 4.0170369 1.3071049
-5.63376 4.0698547 1.3363818
-4.8612928 4.0532408 1.321399
-5.6337991 4.1010742 1.344106
0.28336352 4.1894598 1.3440571
0.81578398 4.2367744 1.3353825
0.79630297 4.2643542 1.337799
-4.4687595 4.3304634 1.304873
0.77054399 4.3247881 1.3476355
-4.4734659 4.3778901 1.325627
0.52906549 4.375145 1.3219545
-5.8144636 4.4244938 1.312405
-5.781126 4.4269209 1.309068
-6.1509628 4.4845018 1.341566
-5.8501558 4.4747429 1.329927
-5.8274479 4.4544649 1.321851
-4.9503918 4.4981961 1.300173
-4.3223639 4.486526 1.306887
-4.2795134 4.4928188 1.3035045
-4.2424841 4.499866 1.301055
-6.1300159 4.5007472 1.3488261
-4.2126379 4.5144453 1.3016784
-5.0056319 4.580389 1.318872
-4.985281 4.593843 1.317727
0.859523 4.5672622 1.305968
1.013889 4.7529659 1.343268
-6.1622429 4.840785 1.306118
-0.47123301 4.8354888 1.333653
-6.182878 4.8854852 1.319714
-6.1339331 4.8882279 1.301271
-6.201736 4.9291229 1.33298
-6.1734772 4.9342299 1.334035
-6.1123672 4.9084625 1.3091404
-6.0715647 4.9248161 1.3155811
-6.1708608 4.9605012 1.341818
-6.1164398 4.9577022 1.3401465
-6.0628357 4.9678679 1.3372638
-6.0186467 4.978231 1.3393049
-4.905745 5.0271702 1.305801
0.091704004 5.084619 1.302875
0.182741 5.1249361 1.326354
-0.60598701 5.2169089 1.3302391
-0.72868699 5.2980952 1.3173651
-0.369335 5.284503 1.300769
-0.52391899 5.320363 1.306564
-0.38696051 5.321919 1.3076241
-0.41941532 5.3761139 1.3165287
-0.672903 5.4182644 1.3045385
-0.44557899 5.412982 1.32199
-0.83468902 5.5793934 1.314924
-0.96353197 5.6407299 1.3041379
-0.8289817 5.6343446 1.3324263
-0.907386 5.6898551 1.330938
-0.87247151 5.6625953 1.330817
-0.839064 5.657557 1.337014
-0.212308 5.6760859 1.300184
-0.194463 5.6762152 1.304135
-0.92680597 5.7276139 1.337654
-0.86423302 5.7149611 1.3480459
-0.319363 5.7777009 1.305883
-0.358376 5.8279262 1.3099819
-0.32804468 5.8200021 1.3133423
-0.28707099 5.8253913 1.3210825
-4.1146917 5.8630257 1.3108954
-4.0783534 5.8851256 1.3201057
-4.0433888 5.8983979 1.326471
-0.37461549 5.8688383 1.3167574
-0.32481802 5.8837328 1.327428
-3.9392524 5.9280043 1.3084166
-3.877815 5.9439502 1.321182
-2.6820254 5.913239 1.3284986
-2.637423 5.9370279 1.349193
-0.41366202 5.9282475 1.3232174
-0.37481833 5.9277291 1.3288716
-0.34615299 5.907938 1.3288341
-0.1056805 5.9207621 1.3086331
-3.925266 5.9549141 1.319042
-3.8595829 5.9661722 1.330796
-3.8421781 5.9902959 1.340953
-0.43314299 5.9597321 1.3269171
-0.38382101 5.980401 1.33877
-0.121218 5.9775529 1.318754
-3.8278799 6.0042849 1.347366
-0.135342 6.000916 1.321802
-2.608108 6.639482 1.307494
-2.6447859 6.6565828 1.305738
-2.5989971 6.6562672 1.314001
-2.4170165 6.8267002 1.304456
-2.44135 6.8791571 1.313735
-2.7261536 6.9297395 1.3078753
-2.4679997 6.9187298 1.3202826
-2.6205449 6.9769182 1.323571
-2.4992721 6.9759908 1.330145
-2.6156771 7.0125518 1.331063
-2.5785725 7.0128207 1.3332037
-2.5305192 7.0210481 1.3375343
1.2834719 -2.5689399 1.35023
1.32757 -2.5531604 1.355608
1.3763915 -2.5308182 1.3629098
1.415765 -2.518348 1.367129
1.431419 -2.4950891 1.3737435
1.4795485 -2.4748948 1.380149
1.5129795 -2.455472 1.3867245
1.5324 -2.4441581 1.391881
1.5623312 -2.4334838 1.3945719
1.922817 -2.2507651 1.354804
1.939496 -2.225359 1.359723
1.965777 -2.210098 1.365319
2.0030169 -2.208977 1.371461
1.992318 -2.1958871 1.376222
2.0275481 -2.1832898 1.3809524
2.0688446 -2.1626995 1.3889097
2.1142256 -2.1399312 1.3973197
2.1299944 -1.9464552 1.3634667
2.1715245 -1.9250275 1.3797679
2.53476 -1.7711483 1.3664242
3.2749159 -1.2279099 1.3954487
3.7910659 -0.62797999 1.397777
3.140676 -0.119224 1.3956
3.1517069 -0.14734 1.397683
3.128191 -0.081164494 1.3937745
3.092346 -0.0049609998 1.3858581
3.101671 -0.029409001 1.387522
3.0849094 0.0274285 1.3856416
3.0649991 0.069408 1.381268
3.037241 0.118822 1.3744071
3.0182145 0.173419 1.3715663
2.9968259 0.22208899 1.367282
2.9717684 0.2706975 1.3615425
2.9427421 0.34203801 1.356344
2.956331 0.31579599 1.359434
2.9252958 0.38128048 1.3529265
2.912524 0.42182001 1.351588
-0.25125799 1.568591 1.35107
-0.249816 1.589704 1.353668
-5.0869379 3.0348434 1.3904275
-5.0449138 3.0005691 1.37635
-5.226357 3.0855095 1.3552614
-5.2849159 3.1743195 1.3866158
0.66685003 3.5825441 1.3982824
-5.4021478 3.7145569 1.399619
-6.109261 3.8581431 1.354094
-6.0780644 3.881278 1.363786
-5.2884564 3.869519 1.3670776
-6.022018 3.9169967 1.3786443
-5.3240852 3.9224837 1.3788904
-5.3615022 3.9701049 1.397266
-5.3488402 3.9599991 1.392444
-5.4083991 4.0416212 1.381819
-5.3986411 4.0081182 1.372012
-5.421072 4.0894737 1.3957295
-5.6735792 4.1353798 1.3588345
-5.646317 4.1183228 1.3503391
-5.3905449 4.1039538 1.396513
-5.7033982 4.1906419 1.377391
-5.6758623 4.1702495 1.367954
0.33139801 4.182652 1.353647
-5.7293143 4.2215056 1.389282
0.29089999 4.2445312 1.361753
0.30650565 4.2269397 1.3603882
0.28874767 4.2661157 1.3675628
0.73939705 4.3844695 1.35472
0.75042301 4.3639798 1.3522609
-4.5193682 4.4499698 1.3562911
0.69573897 4.4440131 1.360974
0.7193988 4.4204607 1.3599058
0.68164098 4.4731216 1.3649194
0.71038198 4.4671993 1.3693795
-6.1042509 4.513536 1.354681
-6.08322 4.5295939 1.3618799
0.29162601 4.521399 1.387764
0.30889699 4.539216 1.398973
0.63760698 4.535624 1.3713166
0.67019063 4.5188484 1.3739874
-6.0732088 4.5534978 1.372297
-6.0229721 4.5631571 1.3771989
-5.9680715 4.583818 1.3869305
0.59866297 4.5916071 1.37686
0.62499845 4.580986 1.379771
0.65205348 4.5701857 1.3828144
-5.9310751 4.6056018 1.396896
-5.8966141 4.60957 1.3991539
0.58922303 4.6301589 1.3848947
0.61917335 4.6166477 1.3872852
-6.1654739 4.6855922 1.3754981
0.56547499 4.6757879 1.390065
-6.1691198 4.7174649 1.383402
0.53480059 4.7239776 1.397512
-6.181447 4.7735682 1.3977771
-6.1450791 4.789968 1.399129
-6.0035238 4.7638292 1.38281
-6.029583 4.816772 1.397511
0.92053401 4.8921289 1.360787
-0.45816201 4.925797 1.366407
-0.41710001 4.9408946 1.384555
0.908081 4.9490442 1.372889
-0.470348 4.9734716 1.378968
-0.43157601 4.9793115 1.3934484
0.894467 4.971076 1.37588
-6.0192499 5.003221 1.3524441
-5.9731688 5.020349 1.3570441
-0.50332499 5.0299702 1.3893009
-0.474381 5.0167799 1.3936075
-5.9290733 5.053257 1.36651
-5.8673396 5.0699134 1.3709503
-5.7930732 5.0887041 1.376029
-5.7398081 5.0970578 1.378183
0.094191 5.0667491 1.378646
0.27922401 5.0686598 1.3793941
-5.7703781 5.1258459 1.387269
-5.7136211 5.160079 1.397453
-5.689723 5.1665721 1.39933
-0.76329702 5.2389789 1.373359
-0.74306899 5.240952 1.3764725
0.41941851 5.2684412 1.3663695
0.394972 5.3366089 1.383664
0.42121759 5.3242288 1.3823377
-4.9841862 5.3828712 1.371671
0.374643 5.3730092 1.3923478
-0.756585 5.4726729 1.369023
-0.32709301 5.5337086 1.38405
-0.64718801 5.6737881 1.358766
-0.6156525 5.7147722 1.3738451
-0.58978403 5.7096581 1.376325
-3.062439 5.7656589 1.351997
-0.82933903 5.7758908 1.358663
-0.98935699 5.8235269 1.351848
-0.85852498 5.833528 1.369276
-0.82404196 5.8277421 1.3726926
-0.87217802 5.8913031 1.382138
-1.176567 5.933218 1.350685
-0.90592498 5.9412832 1.390179
-0.88757497 5.9297719 1.389816
-3.8041539 6.010849 1.352469
-3.7631168 6.0161438 1.35929
-3.746958 6.0410261 1.369597
-3.7229261 6.0595541 1.3787705
-3.6904049 6.0844316 1.3911414
-1.1196899 6.0873418 1.397944
-3.1048269 6.4310179 1.369575
-3.0662799 6.4322262 1.375988
-3.0428751 6.4489932 1.384943
-3.018707 6.4648795 1.3937504
-2.9389369 6.5378551 1.371609
-1.97462 6.5271678 1.399578
-2.9650569 6.7982359 1.362339
-2.969228 6.8075867 1.3643605
-2.9253671 6.8234172 1.3703489
-2.424407 6.8269472 1.3955574
-2.8192871 6.8818092 1.3895609
-2.789407 6.8981471 1.394931
-2.7688634 6.9111619 1.3990415
1.585923 -2.4149251 1.401301
1.6140029 -2.4143815 1.4037095
1.65306 -2.4025221 1.411549
1.6307451 -2.3972809 1.405825
1.6813912 -2.3740737 1.4161818
1.7187099 -2.35988 1.421286
1.7351915 -2.341454 1.426326
1.772141 -2.3274851 1.4330937
1.8185225 -2.3056085 1.4405811
1.836575 -2.2861049 1.446265
1.860319 -2.2919631 1.4473031
2.2181096 -1.8888966 1.4089533
3.3111711 -1.212525 1.407168
3.3334606 -1.1799301 1.4163152
3.347331 -1.135931 1.4240071
3.3841393 -1.1206399 1.4153104
3.33845 -1.095979 1.4247561
3.3748715 -1.0904455 1.4198275
3.4018829 -1.086679 1.444195
3.4717324 -1.0698639 1.4269511
3.5263691 -1.0222324 1.442593
3.954092 -0.93174601 1.405863
3.3746369 -0.67078102 1.444957
3.8260591 -0.68721002 1.400234
3.360873 -0.62575603 1.4428799
3.3388 -0.56957102 1.438427
3.3095031 -0.51614797 1.4310009
3.456377 -0.509942 1.427043
3.2965131 -0.48232201 1.428465
3.4475465 -0.479871 1.427701
3.2785854 -0.43404448 1.425108
3.4090884 -0.4259403 1.4214858
3.2452779 -0.351181 1.418413
3.265461 -0.39190501 1.423183
3.3873775 -0.377767 1.4201715
3.2170589 -0.30182701 1.4111741
3.3567801 -0.32644799 1.4163831
3.2088342 -0.2669155 1.410677
3.193404 -0.22527499 1.407896
3.170877 -0.18385001 1.402318
-0.4049955 1.438303 1.401511
-0.41837099 1.49275 1.404121
-0.42668301 1.527909 1.405879
-0.381084 1.5288677 1.4117457
-0.31916949 1.528091 1.4186405
-0.24058001 1.542346 1.438269
-0.37465376 1.5801485 1.41921
-0.33066699 1.585415 1.424545
-0.297297 1.579677 1.432162
-0.2389455 1.576697 1.4418111
-0.32485798 1.6191202 1.4262573
-0.29028401 1.629529 1.433269
-0.238607 1.648342 1.44419
-0.27503699 1.6508335 1.438014
-5.1104403 3.0771441 1.405647
-5.1286774 3.1191478 1.42044
2.3705981 3.140265 1.437205
2.419523 3.1446331 1.447938
-5.3792548 3.3235168 1.4397997
0.68321878 3.5899401 1.4055235
0.72299361 3.5928371 1.414554
0.76989251 3.5958462 1.4254215
-5.0786257 3.616375 1.4362836
-5.020083 3.6291893 1.4321972
0.76868802 3.606319 1.431331
-4.9862123 3.6722791 1.440136
-5.4240499 3.7409911 1.409259
-5.5001068 3.7799189 1.4251209
0.51338851 3.7828646 1.422318
3.424479 3.7961249 1.43524
0.496602 3.804003 1.431024
-5.7128329 3.8958769 1.449006
-5.6676345 3.8639555 1.4350995
-5.3101082 3.8842239 1.403464
0.496301 3.8984251 1.4373879
0.52284199 3.8635607 1.4339706
-5.4050002 3.9394801 1.432812
-5.3229723 3.9188635 1.4143445
-6.130095 4.0410709 1.436468
-4.8394399 4.045311 1.424551
0.319828 4.0243793 1.4455067
-4.8617678 4.0581546 1.4327445
-5.0918021 4.118423 1.429279
-5.043076 4.134408 1.42573
0.32866901 4.1507049 1.4285671
-5.1161852 4.2405787 1.4170029
-5.099484 4.2141252 1.407012
-5.0717201 4.2682619 1.41557
-5.8031301 4.3290048 1.428548
-5.7898302 4.3452578 1.4393129
-5.0433278 4.3110032 1.421241
-5.8250561 4.380446 1.4454859
-5.7991261 4.3612251 1.436377
0.27663401 4.4901218 1.430811
0.44046801 4.463726 1.41019
-5.7788901 4.5280781 1.4252239
-5.747447 4.5281978 1.423872
-5.6766925 4.521337 1.4185834
0.48710549 4.5169868 1.4383945
-5.6565208 4.5557222 1.428887
-5.8658381 4.6325197 1.4095585
-5.8272696 4.6666832 1.4249605
-5.7820883 4.6932116 1.4372045
-4.2287831 4.6642318 1.44969
-5.750525 4.7159681 1.447608
0.56407404 4.7174501 1.4012771
-6.1267023 4.8211508 1.4053725
-6.038991 4.855926 1.407712
-6.0570631 4.9028711 1.4204299
-6.0203338 4.9330664 1.4253407
-5.9612985 4.9613457 1.4283476
-5.9462018 4.995708 1.43585
-5.914247 5.0148764 1.43852
-5.8675675 5.0348816 1.4404885
-5.6433568 5.032516 1.425854
-0.46483201 5.041461 1.405471
0.057636 5.0355902 1.443508
-5.8335915 5.0679755 1.4466031
-5.7802458 5.0826826 1.4469495
-5.7473078 5.1001592 1.449314
-5.2312331 5.1425762 1.445008
-5.6694031 5.1749549 1.401826
-5.6482968 5.1839752 1.404531
0.484364 5.1757278 1.435655
-5.6283159 5.2104101 1.4126799
-5.5815411 5.2380714 1.4211823
-0.65890551 5.2301922 1.417151
-5.5380583 5.2683058 1.4305835
-4.0766439 5.2738051 1.4475939
-4.0164433 5.294147 1.4463415
-0.678675 5.2813425 1.4292369
-0.62543768 5.2752252 1.442903
-3.9790032 5.3156471 1.4487804
-0.36144599 5.5332408 1.408888
-2.3781924 5.5902534 1.409023
-0.38394833 5.5758233 1.4159321
-0.26566601 5.5786982 1.4018461
-2.325681 5.6058531 1.418523
-0.74348098 5.6182232 1.416716
-2.5142415 5.683701 1.4319775
-2.5554609 5.7355342 1.447793
-2.5400596 5.7141504 1.441116
-4.0451789 5.7539339 1.448131
-2.624995 5.7909741 1.4273459
-2.5868778 5.8110352 1.439206
-0.29488799 6.0991082 1.412354
-3.66363 6.115828 1.4050115
-3.6229019 6.1296778 1.414757
-2.9701588 6.4823127 1.4068905
-2.9264719 6.5046253 1.420831
-2.8804102 6.5240149 1.4342474
-2.845098 6.5409832 1.445213
-1.954739 6.5309639 1.403001
-1.9249816 6.5374832 1.4083509
-1.8752841 6.5389113 1.4148997
-2.426693 6.5849366 1.4063072
-2.4664776 6.6122441 1.4146529
-2.3522501 6.6383471 1.439646
-2.3473079 6.65484 1.444371
-2.6676745 6.7166433 1.4477994
-2.458298 6.879169 1.406376
-2.4437361 6.854126 1.401109
-2.4747 6.911778 1.4133559
-2.5649011 7.0526481 1.442579
1.878332 -2.276932 1.452124
1.9161307 -2.2632093 1.4590683
1.937963 -2.2391319 1.463081
1.9729983 -2.2337878 1.4698452
2.0166006 -2.2125893 1.4776303
2.0525019 -2.208842 1.4841959
2.070298 -2.182111 1.4882736
2.1148665 -2.171953 1.496361
2.619801 -1.8353291 1.461488
2.6694734 -1.8219577 1.4719324
2.3403325 -1.7859695 1.467274
2.7148371 -1.784289 1.4825385
2.7632115 -1.7706034 1.4929221
2.346735 -1.709754 1.460075
2.381 -1.731344 1.4846085
2.79037 -1.746672 1.499458
2.3362999 -1.671937 1.4572985
2.3852775 -1.6746809 1.4928679
2.413559 -1.697229 1.490523
2.3626671 -1.627574 1.4852411
2.3401899 -1.591204 1.477124
2.3654859 -1.5890369 1.488623
3.4297938 -1.075794 1.4533811
3.571105 -0.96657664 1.4570874
3.5962241 -0.92551303 1.466224
3.6065021 -0.90235299 1.470593
3.4622231 -0.85979998 1.46531
3.4435239 -0.81569701 1.461207
3.4220841 -0.76871997 1.456267
3.4028771 -0.72495699 1.451972
-0.162021 1.591779 1.452158
-0.201511 1.656441 1.451579
1.379069 3.0118389 1.492533
-5.1936903 3.1811631 1.49104
-5.1158352 3.2357345 1.457026
1.224548 3.2699552 1.461622
-5.1149545 3.3248184 1.4861323
-5.4064922 3.3566401 1.452639
-5.474843 3.4688125 1.4933286
-5.1556511 3.6395149 1.450037
-5.1816959 3.687799 1.466756
-5.1487789 3.6581681 1.4531389
-5.2661018 3.7389221 1.495867
-5.2117171 3.7184772 1.4801294
-5.0054789 3.7345109 1.460588
-5.7965741 3.92431 1.465698
-5.5962939 3.949347 1.46612
-5.6067982 3.9895861 1.478205
-5.5927067 3.969501 1.470739
-4.8399181 3.9797301 1.4726255
-5.6334305 4.0132627 1.4886506
0.23074099 4.0432382 1.457693
0.33747599 4.031961 1.451803
0.37318817 4.0381284 1.4602046
0.41850549 4.0448027 1.470503
0.45876101 4.0496211 1.479313
-5.6345549 4.05019 1.498492
-5.2189679 4.094934 1.456109
0.194539 4.068388 1.458599
0.439336 4.0605798 1.481572
-6.1267109 4.1106071 1.4676795
-6.2610631 4.152627 1.489149
-6.1333742 4.1727133 1.4957955
-5.3025599 4.1860218 1.493917
-5.1838298 4.194705 1.4646209
1.288208 4.1601229 1.499727
-5.1118169 4.2025771 1.455202
-5.0253148 4.266427 1.458854
0.33284101 4.280653 1.4596421
0.37695232 4.2641711 1.464262
0.24294801 4.3460321 1.4689773
0.27457076 4.3311486 1.4697788
-5.8094282 4.3748274 1.458099
0.31080049 4.5604296 1.4712141
-4.4899139 4.6484299 1.485263
-4.357305 4.6332469 1.459972
-4.3108821 4.6322098 1.452445
-4.2890663 4.6439438 1.4526945
0.58385599 4.6330152 1.499367
-4.2546239 4.656673 1.451319
-4.2242699 4.6893754 1.4568806
-5.71876 4.7400174 1.4585974
-5.6705155 4.7642813 1.47
-5.640574 4.787149 1.480487
-5.6217599 4.8038139 1.4880871
-5.5849214 4.820828 1.4961905
-4.1738276 4.8230004 1.4919647
0.87665349 4.9118271 1.4559784
0.14400201 5.0724659 1.4725569
-5.7051759 5.124928 1.453005
-5.6910448 5.144012 1.456993
-5.6613646 5.1643171 1.460386
-5.6316199 5.184454 1.463764
-5.2132406 5.1638799 1.4544156
-5.1614094 5.1614795 1.454994
-5.1164393 5.1798863 1.4641699
-5.0832071 5.197484 1.472701
-3.174278 5.1811161 1.481226
-5.6144881 5.2005501 1.4668781
