# .PCD v0.7 - Point Cloud Data file format
VERSION 0.7
FIELDS x y z intensity
SIZE 4 4 4 4
TYPE F F F F
COUNT 1 1 1 1
WIDTH 1363
HEIGHT 1
VIEWPOINT 0 0 0 1 0 0 0
POINTS 1363
DATA ascii
2.474376 1.937091 1.151493 1
2.3205154 1.9732504 1.195323 1
2.4713659 1.9762449 1.1589807 1
2.297327 2.024617 1.19859 1
2.3270097 2.0008998 1.1745235 1
2.3579373 2.0351503 1.1590593 2
2.4291592 2.0354986 1.160805 1
-2.915668 2.0762279 1.150105 2
2.2854154 2.0902998 1.1774026 1.3333334
2.3178403 2.0678322 1.1630195 1.7142857
2.4073038 2.0775688 1.164216 1
2.1962099 2.1437509 1.188081 1.5
2.227087 2.1396961 1.171639 1
2.273875 2.125663 1.1704625 1.4444444
2.3820708 2.1342363 1.1699504 1
2.1785562 2.1740339 1.1889956 6.2916665
2.3534441 2.1862454 1.1738865 1
2.1376591 2.242399 1.1910729 20
2.1638045 2.2283542 1.1872056 21.200001
2.3232584 2.2229366 1.1741363 1
2.1403027 2.2740908 1.1837231 22.5
2.1576431 2.261816 1.1520441 27
2.316648 2.259213 1.18039 1
2.1236026 2.3222706 1.1567392 27.055557
2.187942 2.3455987 1.166263 1
2.2130456 2.3169789 1.1664081 1
2.0936189 2.3866653 1.1590943 23.277779
2.110826 2.3594694 1.1628671 28.5
2.1768498 2.37515 1.169971 8.75
2.040864 2.448509 1.167552 11
2.0687752 2.4245229 1.1659068 23.797619
2.140846 2.4404271 1.17528 10
2.1613388 2.4139774 1.174646 10.166667
2.0262377 2.4774501 1.1748499 18.5
2.056689 2.469393 1.1762083 30.375
2.1136639 2.477562 1.1766241 9.75
-4.8025818 2.5439341 1.158011 93
-4.7750249 2.5380926 1.15224 92.25
1.9854264 2.5122936 1.189554 11
2.0212736 2.5198591 1.1817408 28.260416
2.0829785 2.5260653 1.1796875 10
-4.8107381 2.5833094 1.1641667 98
-4.7995019 2.579262 1.161572 95
1.9863595 2.5942664 1.1905069 35
2.0106931 2.5753543 1.1834667 34.900002
2.0650585 2.5737724 1.185986 10.5
-4.8362689 2.6250217 1.1739923 93.833336
1.9783224 2.6291308 1.1854684 39.476189
2.0239017 2.6225073 1.1719679 23.490742
-4.8577676 2.6712399 1.1838113 95.5
-3.4533579 2.699208 1.150242 41.5
-3.4340506 2.6868825 1.1501495 32
1.9775174 2.681911 1.1684965 36.738098
2.0097625 2.6680686 1.1791039 9
-4.8813796 2.7203894 1.194644 90.333336
-3.472512 2.7176869 1.150512 58.5
1.9424334 2.7372482 1.1754757 59.222218
1.9679664 2.7199416 1.172264 22.8125
1.8413125 2.7775185 1.1595315 11
1.867772 2.7623386 1.1564541 11.333333
1.9327282 2.7685657 1.1810511 53.383331
1.9594874 2.7734799 1.175807 6
1.8237967 2.818903 1.177019 10.875
1.8860042 2.8337913 1.190986 49.916664
1.9143641 2.8263597 1.1753464 34.166668
1.7820448 2.8736227 1.1972107 11
1.801592 2.8580179 1.192672 11
1.8842204 2.8735344 1.163635 39.958336
1.903181 2.866884 1.159336 50
1.8463366 2.9269185 1.1558975 10
1.8705243 2.9228127 1.1735655 34.940475
1.82572 2.9776094 1.1714071 22.583334
1.8522921 2.9636605 1.1770566 31
-5.0511298 3.040252 1.151495 99
-4.726006 3.038609 1.155192 3
1.526754 3.041621 1.198723 67.333336
1.7821211 3.0367064 1.1746048 6
1.8174536 3.0202377 1.1765136 16.25
-5.0744987 3.0714743 1.1608649 97.166664
-4.719666 3.0750611 1.1662407 1.6666666
1.493191 3.0544381 1.193534 87.5
1.5254815 3.0698404 1.1725585 75.1875
1.559011 3.0725451 1.177954 35
1.727369 3.096981 1.157454 9
1.7738585 3.0655584 1.1676688 17.625
1.802687 3.0632784 1.1671333 18.805555
-5.1244049 3.1477821 1.182899 96.75
-5.0981932 3.1122265 1.1720409 97.5
-4.7069783 3.1198969 1.1797049 8
-4.6885309 3.145154 1.186869 15
1.5066825 3.1157227 1.179643 29.125
1.588042 3.1074901 1.155368 27
1.632879 3.128953 1.154742 5
1.771603 3.1272357 1.1628255 58.513889
-5.1622849 3.1978159 1.198579 93
-5.1318474 3.1784279 1.1896801 92.666664
-4.6991458 3.165349 1.193665 18
1.439484 3.186878 1.1711836 45.5
1.4727036 3.1863515 1.1595125 55.75
1.5983731 3.1872001 1.1769429 70
1.603241 3.1687701 1.169104 59
1.6697681 3.1838078 1.15631 24
1.7316046 3.1818728 1.1800582 72.25
1.754702 3.1713605 1.1718099 80.666672
1.4213377 3.2222297 1.1757311 91.875
1.458876 3.236814 1.1846111 62.5
1.501362 3.210264 1.162793 30.5
1.5727538 3.2292216 1.185269 68.583336
1.682482 3.239542 1.1987751 67
1.7185831 3.2224329 1.1871036 87.805565
1.3729324 3.2988451 1.1992614 88.5
1.4741095 3.2647285 1.152426 22.5
1.53462 3.2815232 1.1559834 99
1.5655298 3.2568302 1.16671 98.708336
1.6647716 3.2874835 1.1850873 69.166664
1.2889531 3.3355594 1.1632094 100
1.3097579 3.343766 1.171077 100
1.438372 3.3485911 1.183862 23
1.4855448 3.334733 1.1666287 65.583336
1.511302 3.3077221 1.1591635 74.125
1.6374053 3.3250186 1.1890533 75.333336
1.664432 3.310303 1.188935 93
1.2459941 3.3791108 1.1692209 100
1.2643098 3.3673904 1.1691445 148
1.334339 3.371628 1.187017 100
1.4296885 3.3732409 1.1785655 10
1.4705604 3.3799007 1.1673011 59.138889
1.519044 3.3650429 1.170512 35
1.566317 3.361877 1.180444 35
1.633428 3.355839 1.1941299 92
-4.5055251 3.411505 1.1633 7
1.244733 3.4247129 1.185674 54
1.3433779 3.441335 1.1897089 69
1.3772597 3.434479 1.1688508 64.5
1.4147574 3.4098356 1.1645433 60.5
1.4565815 3.4191756 1.1831105 66.958328
-5.034194 3.4971509 1.1708879 1
0.282381 3.4758091 1.168537 6.5
0.31499851 3.4683745 1.1746185 4
1.192746 3.4736936 1.1845933 24.555555
1.214451 3.4782071 1.1916676 22.5
1.3440423 3.4806879 1.1800243 85.666664
1.3655418 3.4627831 1.1762116 77.599998
1.4599949 3.4728706 1.1671487 83.833336
-5.0408368 3.525938 1.184016 32
-4.3138795 3.5283241 1.1589392 76.166664
0.29461652 3.5197458 1.180609 7.5
0.31405652 3.5316687 1.187706 8
1.2075011 3.5045011 1.197437 22.5
1.3331053 3.5264206 1.1874636 72.833336
1.4692061 3.5171251 1.1651835 40.5
-4.3326139 3.5790415 1.1733445 77.875
0.30757952 3.5650296 1.1933424 10.25
0.45949101 3.5742481 1.153136 1
0.64632797 3.5667961 1.188812 1
0.691796 3.5504689 1.194204 1
1.1232724 3.5696023 1.1610053 14.25
1.3276429 3.5716071 1.1968575 53.5
-4.5736918 3.6426129 1.176707 14.75
-4.5241179 3.6303921 1.1651709 11
-4.4942417 3.618005 1.157263 8
-4.3619652 3.641571 1.1923815 79.75
-4.3392048 3.6186161 1.1834445 82.5
0.57366902 3.648582 1.193036 1
1.0417604 3.6404204 1.1907015 24.5
1.246362 3.634078 1.197585 3
-4.357512 3.6632514 1.1967295 79
-3.8779719 3.6915009 1.179057 1
0.025832999 3.6909039 1.158637 10.5
0.60179001 3.6513519 1.199337 1
0.99629897 3.6779444 1.1914657 35.111111
1.0202335 3.6647046 1.184058 34.900002
1.077765 3.698137 1.164548 28
1.163717 3.660619 1.199519 38
1.364397 3.684634 1.159062 100
1.538111 3.684082 1.1693645 96.75
-5.3666801 3.7306139 1.167215 0
-5.3402929 3.7043431 1.158691 0
-3.878088 3.733835 1.180102 1
-0.0084825 3.7348044 1.1593039 44
0.0083019994 3.713099 1.158918 30
0.32944301 3.7436471 1.154837 1
0.98570824 3.7086544 1.1902168 21.875
1.0255014 3.7233353 1.1603414 33.666668
1.1913123 3.7204256 1.1688176 15.166667
1.223021 3.7261679 1.1767964 22.75
1.3799849 3.7198055 1.171771 99.666664
1.5267251 3.7051466 1.17266 93.5
-5.3829174 3.7882967 1.1858995 0
-3.9034674 3.7903426 1.1748314 62.25
-3.8906982 3.7702756 1.1776488 27.90625
-0.030377751 3.7785287 1.1629815 50.625
0.33820999 3.7814169 1.1648855 1
0.99581498 3.78371 1.1718071 24
1.0122923 3.7616224 1.1620523 19.277777
1.245447 3.7599709 1.191142 27
1.3099574 3.7894604 1.169892 29.333334
1.388311 3.7844994 1.1806835 86.083336
1.4115804 3.7680619 1.1911761 103.5
-5.3458338 3.8120079 1.193532 0
-5.1293259 3.83866 1.15376 100
-4.9694719 3.8347106 1.192678 19.5
-4.948431 3.8405199 1.189652 16
-3.918344 3.8251042 1.1749353 67.983337
-0.058587003 3.8267782 1.1662277 49.333332
0.24607199 3.8230529 1.155352 1
0.33561897 3.8139925 1.1525965 14.25
0.36978358 3.8118579 1.1575627 39.533333
0.425311 3.8373871 1.176411 19
0.802858 3.847306 1.172591 1
0.88305652 3.8252473 1.1571125 1
0.99812001 3.808522 1.179813 27.75
1.0102603 3.8384273 1.191563 23.5
1.2770951 3.8306808 1.1581807 50.400002
1.3302667 3.8167751 1.1646181 54.200001
1.3622664 3.8243825 1.1804185 46.541668
-5.1566668 3.872689 1.164665 100
-5.1417146 3.8664634 1.1609945 100
-4.9758315 3.8565121 1.1972646 20.833332
-3.9575987 3.8931112 1.1833783 80.166664
-3.9403346 3.8669028 1.1829118 76.520828
-2.3786855 3.8862505 1.1538599 99.762497
-2.3189449 3.889487 1.160202 8
-0.064767003 3.8761878 1.1751595 24
0.42758131 3.854641 1.1831514 43.833332
0.47108969 3.8593712 1.1924764 60.333332
0.50533903 3.8589649 1.198362 52
0.76116598 3.8650129 1.152107 1
0.81836498 3.896971 1.1869839 1
0.88171649 3.8639436 1.189862 1
0.992387 3.8806438 1.1765015 5
1.005357 3.8891649 1.181538 10
1.092641 3.875608 1.154003 6.5
1.233274 3.8550651 1.167025 51
1.381629 3.864661 1.152571 5
-5.2016468 3.941195 1.1854759 100
-5.1715465 3.9172733 1.1756803 100
-4.8652058 3.9028909 1.183758 15
-3.9740803 3.9312434 1.184497 91.516663
-2.360095 3.913101 1.160028 72.5
-2.3386574 3.912499 1.1683326 50.25
-0.061302502 3.9275746 1.1870725 7.25
-0.049878001 3.9233501 1.188889 7
0.82847261 3.9254684 1.1905407 9
0.86845201 3.9067521 1.178741 1
1.0369797 3.9210751 1.158235 15.833333
-5.2152729 3.9843779 1.1964049 100
-5.1916447 3.960979 1.1876355 100
-4.5782619 3.9758289 1.150779 24
-4.0005312 3.987165 1.178395 93.25
-3.9914722 3.9774833 1.1895177 89.96875
-0.042661 3.9578421 1.198228 7.666667
0.46059799 3.975225 1.1601191 70
0.81029701 3.950099 1.198339 14
0.86307651 3.9703565 1.1888763 10.625
0.902659 3.9796519 1.192286 1
1.0664022 3.9748452 1.1756305 18.25
1.200613 3.9992111 1.199168 24
-4.1064382 4.0305037 1.1553978 59.666668
-4.0164938 4.0194769 1.183261 83.416672
0.82936502 4.010633 1.19675 1
0.880373 4.0034499 1.197003 1
-5.2414727 4.085875 1.15281 79.333336
-4.6286054 4.0840569 1.167614 86.125
-4.5988598 4.098413 1.1643209 63
-4.1631832 4.0951662 1.1793309 55.5
-4.1356525 4.068716 1.1689737 59.75
-4.0574608 4.0960827 1.1726711 83.770836
-4.0348721 4.0561347 1.1789393 82.125
0.039224498 4.0854125 1.1725011 1
0.059441999 4.0930872 1.19717 1
1.2236537 4.0843692 1.1857449 60.5
1.300848 4.0619888 1.154337 45
-4.1736484 4.1259103 1.188765 43.666668
-4.0794816 4.1272435 1.1807834 90.513885
0.012913 4.1214061 1.1599669 1
0.079144336 4.1257176 1.1857849 1
0.13422032 4.1453767 1.1533912 33
1.192868 4.1327562 1.1937516 77
1.2128659 4.1151738 1.1920151 74
1.3167731 4.1018252 1.1658961 27
-4.5267959 4.1555972 1.1597199 36
-4.476655 4.188067 1.1774089 18.5
-4.1916742 4.1572509 1.199347 13.5
-4.1036458 4.1831326 1.1860114 92.55555
-4.0883369 4.1689396 1.1682668 83.150002
-0.35542801 4.193285 1.154457 1
-0.328376 4.1819792 1.160076 1
0.018966001 4.175808 1.178739 1
0.079739332 4.1739678 1.1852773 1.3333334
0.17735125 4.1680379 1.1706066 34.979164
0.2230055 4.1925783 1.189129 8.5
1.190832 4.1541619 1.1988699 80
-4.4211597 4.2306905 1.165397 14.833333
-4.3742404 4.233273 1.1873095 28.125
-4.3374271 4.2485051 1.1845599 50.75
-4.1183724 4.22048 1.1672925 82.339287
-0.405633 4.2384386 1.15723 1.75
-0.36610198 4.2377667 1.1680666 1.111111
-0.33545202 4.2180457 1.1709505 1
-0.27565527 4.2268629 1.1741767 1
-0.167732 4.2300615 1.1919971 1
0.84570098 4.2399187 1.1910845 64.5
-4.8609333 4.2914629 1.164295 1
-4.8151317 4.2684336 1.1529673 1.6666666
-4.3654766 4.2538233 1.173178 15.25
-4.3202653 4.2750802 1.172617 42.244793
-4.2749844 4.2908673 1.1845313 52.964287
-4.1629124 4.286438 1.166026 63.21759
-4.1367812 4.2590809 1.1737769 81.010422
-0.35806301 4.251503 1.172576 1
-0.33515602 4.2858276 1.172979 11.583333
-0.27670369 4.2609229 1.1787686 1
-0.23649199 4.2992229 1.19333 1
-0.17696676 4.2874188 1.1884065 1
-0.092806995 4.2795982 1.163229 1
-0.047727998 4.293314 1.174455 1
0.33733651 4.2571268 1.1549425 14.5
0.82861352 4.281014 1.19699 79
1.073908 4.2600441 1.156119 8
-4.918921 4.3267074 1.1802627 3.8333333
-4.8687487 4.3200831 1.1879289 13
-4.8312631 4.3205705 1.1969581 27.5
-4.2711301 4.3079491 1.167087 30.333334
-4.2244411 4.320786 1.1773969 51.693577
-4.1789613 4.3179202 1.1724068 75.537155
-0.37124223 4.3252983 1.1853348 5.3000002
-0.3188135 4.3198166 1.190155 4
-0.28048468 4.310143 1.1766397 1
-0.215508 4.3407559 1.1692851 1
-0.16240433 4.3224106 1.1917449 1
-0.112017 4.3236718 1.172575 1
-0.071894392 4.327826 1.1833761 1.25
-0.044929497 4.322814 1.1647716 1
1.0928504 4.3132381 1.1674435 51.75
-4.904983 4.3848772 1.19371 1
-4.8793254 4.3629818 1.1849445 1
-0.39162701 4.356977 1.196488 1
-0.1761526 4.3696179 1.1851546 8.3000002
-0.128915 4.3678422 1.182537 2
-0.074791208 4.3666101 1.1930004 1
-0.027854374 4.3754468 1.1740668 1.3020834
0.0078184996 4.3778548 1.1728375 1
0.072515003 4.3910699 1.157536 1
0.106141 4.3946738 1.196815 1
1.110538 4.3980331 1.168378 2
-0.30029899 4.4184818 1.187676 1
-0.172491 4.421124 1.1936736 4.25
-0.080991998 4.441844 1.1610994 1
-0.0187605 4.4389954 1.1698639 1
0.0345865 4.4150991 1.1903675 1.125
0.052389 4.434279 1.151075 3
0.12825599 4.410481 1.169966 1
1.088643 4.416636 1.172781 1
-5.5680327 4.4797902 1.1649576 24
-5.5364132 4.465445 1.1594684 54.75
-0.209409 4.4662132 1.198597 2
-0.15055101 4.499537 1.17345 3
-0.120223 4.47404 1.171775 2
-0.073838003 4.4752488 1.1626651 1
-0.0229665 4.4793463 1.1898465 2.5
0.027374251 4.4653549 1.1739353 2.25
0.068778999 4.4568191 1.160681 3
0.17302801 4.4662719 1.19113 1
0.21747801 4.4932671 1.151616 1
1.045555 4.49928 1.195118 29
1.074949 4.4729538 1.1887856 25.5
-5.5706968 4.5263181 1.1776953 70.75
-0.170834 4.503829 1.171144 3
-0.024751665 4.5231824 1.1823896 2.1666667
1.068907 4.5116282 1.199967 1
1.156855 4.5484238 1.151419 52.5
-5.6093211 4.5796247 1.1938347 71.333336
-0.41706699 4.5882401 1.1523995 19.666668
-0.013299 4.5793991 1.1572195 1.3333335
0.016363665 4.5650349 1.164855 5.8333335
1.1403617 4.5772939 1.1536781 52.333332
-0.52816123 4.629364 1.1857411 1.7
-0.49767101 4.646337 1.195606 5
-0.42654449 4.6144295 1.1596439 12.5
-0.38030624 4.6353545 1.167297 7.083333
-0.075685002 4.6354961 1.154161 2
-0.019640001 4.6252761 1.162796 1
0.074679002 4.601439 1.160605 1
1.128963 4.61587 1.158599 31
-5.5800729 4.6590509 1.151358 23
-4.157145 4.6963592 1.17816 70
-4.1371932 4.6971598 1.150501 17
-0.50710201 4.656889 1.198164 1.5
-0.48824599 4.6522012 1.198891 1
-0.41468239 4.6732292 1.1711748 4
-0.39007398 4.6672969 1.1615672 2
-0.31914401 4.6691871 1.191082 1.6666666
-0.180737 4.684556 1.153602 1.3333334
-0.12480932 4.6668139 1.1591233 1
-0.087454997 4.650063 1.156564 1.5
0.9089905 4.6822939 1.152765 9.5
1.070011 4.682478 1.159905 16
-5.606111 4.714097 1.160118 34
-4.2664585 4.715672 1.1967075 84.46875
-4.243865 4.7386789 1.18864 50
-4.1695976 4.7248244 1.173597 74.056816
-4.1415763 4.703094 1.1604344 74.388885
-4.0056829 4.7131629 1.151001 32
-3.9813659 4.7313256 1.15495 37.5
-0.4213213 4.727529 1.177457 2.3333333
-0.37678301 4.7151685 1.1954534 1
-0.2114345 4.7230949 1.160203 1.5
-0.18250799 4.7224088 1.1629184 1.8333334
0.048548002 4.7277422 1.1948839 1
0.077365004 4.7378368 1.1992331 6.75
-5.6363521 4.773212 1.169817 41
-4.4570165 4.7809982 1.1527405 33.375
-4.4057999 4.7904592 1.1504951 6.5
-4.3843732 4.7983532 1.150509 7
-4.212801 4.7765374 1.1798518 36.875
-4.1757388 4.7802148 1.1895323 29.333334
-4.1239629 4.7693658 1.1714951 23.666666
-4.0794759 4.7907867 1.180617 28.25
-4.0285573 4.7792196 1.1780821 18.285715
-0.42115298 4.7644458 1.1918874 1.6666666
-0.3702085 4.7628422 1.188005 1
-0.30086499 4.758852 1.188531 1
-5.6700978 4.8341689 1.180142 78
-4.5316563 4.8404565 1.1629027 2.2777777
-4.4163985 4.8212461 1.1588194 10
-4.3486061 4.8204632 1.152662 10
-4.1627269 4.8183427 1.178211 39.25
-4.1247101 4.830853 1.1742089 60.440472
-4.0585051 4.8214121 1.1739585 41.879627
-4.0254064 4.8284359 1.17741 44.274803
-3.9980819 4.8422909 1.175414 21
-0.26110899 4.825808 1.182516 1
-0.243185 4.821188 1.183558 1
-5.671174 4.8693752 1.1838959 100
-4.6284547 4.8937635 1.1787683 14.166667
-4.5768805 4.8984957 1.1572421 7.75
-4.5183468 4.8735065 1.1639304 14
-4.4936895 4.8701611 1.1696081 5
-4.2710986 4.8650012 1.1565317 14.138889
-4.2403951 4.8792148 1.1572551 16
-4.1724234 4.8876295 1.1670525 22.5
-4.12358 4.874249 1.176213 34.540062
-4.0737772 4.8732448 1.1715329 32.221489
-4.0260329 4.8650894 1.1764417 49.591137
-3.998534 4.874454 1.1981704 30.6875
-1.039814 4.8852139 1.1810719 43.277775
-0.66680402 4.8725109 1.164142 3
-0.131266 4.896718 1.150445 1
0.040754501 4.8787012 1.155573 41
0.058540501 4.8734837 1.15518 59
0.98703098 4.8753772 1.179365 37
-6.0653582 4.9358301 1.1766829 64
-4.6199059 4.9251914 1.1754429 45.266666
-4.5794921 4.9137754 1.1838992 8.5
-4.548892 4.9174032 1.178349 24.666666
-4.4731765 4.9335198 1.1918631 10.5
-4.2703691 4.9015751 1.175089 21
-4.2251344 4.9328008 1.1835324 24.619047
-4.1568952 4.9147792 1.185828 83.333336
-4.1204786 4.9239411 1.176993 41.598213
-4.0923514 4.9310312 1.1783962 33.114712
-1.0730374 4.9307494 1.1753207 45.323418
-1.0163323 4.9282317 1.1762902 26.611113
-0.98287499 4.9322462 1.1862636 45.416668
-0.9177025 4.9117737 1.1570079 7
0.0074789999 4.9478121 1.1776921 2
0.97105837 4.9303074 1.1862854 34.666668
-5.967546 4.9936509 1.185444 73
-5.7303491 4.9550352 1.199852 37
-5.5274849 4.9782834 1.1654074 100
-5.483408 4.9826598 1.1648591 96
-5.1198106 4.9799509 1.1791404 19.5
-5.0836987 4.9859219 1.1877393 52.4375
-4.6668706 4.9635692 1.169414 4
-4.6249676 4.9762297 1.1770419 15.929488
-4.59758 4.9822469 1.199816 2.5
-4.4184036 4.9595585 1.177001 18.5
-4.3861423 4.9776344 1.1868979 17.283335
-4.3391213 4.9830513 1.1796557 16.666666
-4.2977591 4.974494 1.17312 29
-4.2167377 4.9693756 1.1706377 33.666668
-4.170393 4.9598293 1.1821218 27.166668
-4.1266017 4.9696188 1.1801201 45.43634
-4.0930381 4.9741511 1.1866368 38.111111
-1.1103796 4.9740629 1.1769873 53.429169
-1.0846401 4.9660368 1.1696953 52.222225
-0.97240984 4.9722934 1.1836973 46.799999
-0.92746973 4.9848933 1.1942445 85.25
-0.87660301 4.9558048 1.173022 10
-0.84020698 4.9907269 1.1859965 15.75
-0.75830698 4.9982338 1.150497 6
-0.577097 4.9916558 1.15133 9
-0.105985 4.9963822 1.180216 84.25
-0.091913998 4.9801869 1.177093 100
-0.00080699997 4.9598041 1.180182 16
0.028463 4.9685555 1.1853759 7
0.95377702 4.962245 1.188803 12
-5.9378619 5.0149908 1.1890025 99.5
-5.8979402 5.0268579 1.190079 100
-5.4548841 5.0181031 1.171958 78
-5.1095471 5.0368099 1.1715847 100
-5.0945606 5.0146675 1.1616995 89.25
-4.6676569 5.032198 1.1807132 27.481482
-4.6269917 5.0249104 1.1725234 39.954544
-4.3332601 5.0000558 1.184274 12.5
-4.2649689 5.0190344 1.183601 16.25
-4.2337823 5.0220208 1.1871017 21
-4.1680136 5.0190096 1.178571 26.25
-4.1245437 5.0134211 1.1795304 26.43125
-1.5238203 5.0428615 1.1618104 98.5
-1.150947 5.0334048 1.178305 18
-1.1251138 5.0308704 1.178315 56.257812
-1.031184 5.0275922 1.1557212 9.25
-0.95759302 5.015399 1.150542 2
-0.931373 5.0176969 1.199919 1
-0.80698103 5.0171938 1.196234 18
-0.7801165 5.0154839 1.1755505 21.5
-0.700082 5.0378881 1.15848 7
-0.67657012 5.0147753 1.1542166 18
-0.64823598 5.0221081 1.156904 57
-0.046268001 5.0313482 1.1955301 12
-5.4713459 5.0823164 1.187186 14.5
-5.2803783 5.0791426 1.1803346 81.5
-5.1297479 5.0711999 1.176072 100
-4.7031131 5.097333 1.165879 75
-4.6684432 5.0662627 1.1719283 35
-4.6195488 5.072423 1.1762341 19.458334
-4.5934243 5.0906863 1.1659797 32.277779
-1.5655832 5.0853581 1.1736486 69.930557
-1.520404 5.0711923 1.1718497 95
-1.4764812 5.0699191 1.172242 95.75
-1.4269919 5.0915298 1.1811886 100
-1.163236 5.0767822 1.190516 48.65625
-1.1426641 5.0747185 1.1888453 89.402771
-1.0664498 5.0813279 1.1627768 16.541666
-1.048122 5.05827 1.164775 19
-0.87775099 5.0630279 1.174863 3
-0.83795297 5.0837231 1.186039 1
-0.637155 5.0793118 1.172665 1
-5.7120733 5.117949 1.155282 16
-5.6942348 5.1448259 1.16317 18
-5.548193 5.1181712 1.158535 40
-5.473022 5.1305461 1.19829 9
-5.171248 5.1449223 1.167776 59.833332
-5.1389656 5.1198621 1.1812196 57.486111
-4.6219096 5.115469 1.1630859 3.3333333
-4.5839725 5.1101437 1.1658874 10.833333
-4.3863921 5.1447239 1.159739 1
-4.3245373 5.1208057 1.1741475 1
-1.607517 5.1465611 1.192853 87.666664
-1.5784731 5.1284509 1.1652086 86.635719
-1.5184242 5.1218138 1.1732615 76.263329
-1.482782 5.134563 1.179855 57.388889
-1.405244 5.103157 1.185807 100
-1.3770041 5.1283584 1.1729281 77.958336
-1.343619 5.1357775 1.198885 100
-1.20875 5.1491561 1.165066 75
-1.1804454 5.1185904 1.1707169 53.208336
-1.122543 5.1277566 1.171389 18.666666
-1.087114 5.1225119 1.1764244 18.5
-0.60290802 5.1419868 1.191057 8
-0.56022549 5.1261725 1.1742024 32
-0.54368699 5.147758 1.181855 26
-5.670464 5.151298 1.165449 18
-5.6452889 5.1562839 1.167348 18
-5.5817828 5.1809111 1.175611 34
-5.302597 5.1502581 1.197471 37
-5.1404729 5.1535559 1.1758754 17.5
-4.4575181 5.157558 1.166401 1
-4.4129372 5.1693172 1.1678905 6.25
-4.3811612 5.1886463 1.1721083 33.333332
-1.6069784 5.1817284 1.1761776 63
-1.5944786 5.1618471 1.1666907 56.625
-1.5263048 5.184721 1.1852062 70
-1.4569 5.1566453 1.1792785 35.75
-1.4177885 5.1796885 1.1696393 23.85
-1.3747333 5.1687093 1.1662036 31.833334
-1.3201344 5.1617956 1.1626461 50.25
-1.2797575 5.1859488 1.170903 49.0625
-1.22202 5.181922 1.173682 56.59375
-1.19426 5.1614504 1.1688964 40.625
-1.111088 5.1661577 1.196636 23.5
-0.50685602 5.1846008 1.195704 56
-5.5683289 5.2280664 1.1892914 32.333332
-4.3681941 5.2315855 1.1741327 41.799999
-4.311933 5.248991 1.15244 41
-1.6286312 5.2266617 1.1715045 50.401516
-1.553913 5.232491 1.198194 71.055557
-1.5391414 5.2076492 1.1930285 75.416672
-1.3654234 5.2038774 1.167632 25.25
-1.3219024 5.2259636 1.179177 28.25
-1.2719977 5.2445016 1.1761752 44.805553
-1.2338034 5.2183824 1.1825185 32.923332
-5.543148 5.2616491 1.199409 30
-4.4256444 5.2693148 1.179536 58.277775
-4.3759232 5.2847719 1.1704307 72.304375
-4.3431091 5.2844591 1.1811709 41
-3.1098037 5.2886519 1.19232 33
-3.0673447 5.2864294 1.194308 54.5
-1.6632725 5.2868071 1.177104 29.104166
-1.6490541 5.2612638 1.1679339 41.222225
-1.5734279 5.2717247 1.176541 76.25
-1.2720215 5.2559242 1.1834192 63.041664
-4.4077201 5.30019 1.189438 44.291668
-4.3757629 5.3230901 1.1783749 36.673382
-4.3193116 5.3346901 1.1799438 42.25
-4.2860603 5.3145466 1.1582619 49.875
-4.2341814 5.3225975 1.1683058 56.5
-4.1787214 5.34096 1.175053 49.549999
-3.06042 5.3029642 1.199999 49
-3.0107911 5.3332591 1.1536566 6.1666665
-1.6827307 5.3292933 1.1818734 32.970238
-1.6112545 5.3274827 1.1582614 79.375
-1.5948647 5.3129745 1.1616381 85.5
-5.2872009 5.3638892 1.1959163 3.8333333
-4.3648195 5.362855 1.1759601 51.5
-4.309978 5.373703 1.1575691 39
-4.255548 5.3695621 1.182699 26
-4.2117891 5.3681149 1.174141 48.490479
-4.1861038 5.3734331 1.1764176 50.972145
-3.5182471 5.3810639 1.1968665 24.75
-3.476275 5.3734131 1.193185 25
-3.4265757 5.3657966 1.1892954 37.333332
-3.3788638 5.3675418 1.188397 40.5
-3.3276598 5.3612857 1.1849433 40.583332
-3.2723205 5.3581166 1.1823727 75.666664
-3.2248437 5.3584723 1.1811754 91.333336
-3.1735129 5.3623981 1.1810588 87.9375
-3.115016 5.3614216 1.179274 68.833336
-3.0748529 5.3785295 1.1837889 47.049999
-3.0005989 5.3646841 1.162241 7
-2.993964 5.3818092 1.1669507 7.6666665
-1.7086776 5.3703752 1.1840333 40.361111
-1.6856651 5.375597 1.1646957 60.291664
-1.6329243 5.372745 1.1701452 79.753784
-5.2800694 5.4362001 1.1531529 100
-4.593286 5.4408598 1.152529 5
-4.2781711 5.4189248 1.151279 14
-4.2190371 5.4253001 1.1725225 43.826668
-4.1807036 5.4230695 1.18018 59.906445
-3.065758 5.4123769 1.194436 1
-3.003195 5.4109259 1.174428 8
-2.984122 5.4278274 1.1794108 6.5833335
-1.7323408 5.4269319 1.1687967 59.972218
-1.6643498 5.4217935 1.1809485 81.770828
-1.6451705 5.4099331 1.1835434 82.416672
-5.3061962 5.4878821 1.166764 100
-5.2905931 5.4648614 1.160902 100
-4.2653193 5.4809179 1.1817328 32.5
-4.2190042 5.4646649 1.180079 35.5
-4.1697364 5.4665389 1.1663715 40.370369
-2.979713 5.4684062 1.190295 5.75
-2.846616 5.4969859 1.150599 10
-2.345886 5.4843111 1.151423 1
-1.7636089 5.4846735 1.1854169 83.6875
-1.746663 5.4503279 1.180995 62.25
-1.6851958 5.4624329 1.1891167 77.739578
-0.60895503 5.49546 1.170874 59
-0.5818727 5.4721718 1.170892 64.666664
-0.53438431 5.47609 1.1799809 63.333332
-0.31176099 5.4972348 1.186559 57
-0.29181647 5.4727936 1.1841016 61
-0.217664 5.4576988 1.150923 8
-0.18972801 5.458621 1.151947 100
-5.323915 5.5204706 1.1752545 89.125
-5.2060528 5.50776 1.154516 78
-5.1765423 5.5161448 1.159929 105
-5.1414995 5.5343504 1.169368 112
-5.0634804 5.5265932 1.173088 86
-4.3057618 5.5370402 1.198095 49
-4.2882471 5.5084481 1.190305 48
-4.209496 5.520617 1.165607 13
-4.1748161 5.5194955 1.1646668 53.388889
-4.1328182 5.5274911 1.1666697 34.962238
-2.980823 5.5006018 1.198814 6.5
-2.8635905 5.5352206 1.160372 9.5
-2.6141031 5.542098 1.166696 10
-2.350466 5.5435491 1.18653 6
-2.335978 5.549181 1.188659 3
-1.7833105 5.524622 1.171847 70.041664
-1.7197952 5.5176363 1.1651112 95
-1.412115 5.545557 1.181402 1
-0.63285899 5.532187 1.1749687 52.666668
-0.57289898 5.5233588 1.1834811 63.666668
-0.356677 5.5368662 1.188756 56
-0.33598599 5.5075502 1.185328 53.5
-5.1242499 5.5574818 1.179154 107
-5.0544939 5.561388 1.18646 90
-5.0495558 5.5861068 1.195856 115
-4.2800498 5.5938568 1.158136 1
-4.2209382 5.5835114 1.1792158 47.875
-4.1609607 5.5803876 1.1762006 19.355555
-4.1360617 5.568511 1.1778182 21.923214
-2.8615019 5.555975 1.166761 4
-2.84269 5.5625091 1.170514 1.5
-2.734123 5.5658073 1.1556545 88.666664
-2.6811862 5.5716109 1.1655965 66
-2.601563 5.5520091 1.171726 11
-2.5860367 5.5807471 1.1831141 10
-2.378032 5.5936098 1.1753891 4.25
-1.8121738 5.5773993 1.1814382 28.200001
-1.7679459 5.5726891 1.1657161 99.722221
-1.7380315 5.5695896 1.1612082 87.916664
-0.67463368 5.5646577 1.1741095 26.333334
-0.62873137 5.5763893 1.1847221 58.333332
-0.59925699 5.5552268 1.18577 62
-0.38395667 5.5769691 1.1936064 55.666668
-5.122292 5.6111741 1.199277 89
-4.3560028 5.6164799 1.156612 1
-4.2606201 5.6202183 1.1824419 29.5
-4.2273865 5.6230521 1.1740657 25
-4.1810646 5.6200233 1.1820245 15.490742
-3.3135099 5.6450291 1.174749 12
-3.0239692 5.6131554 1.198858 30.5
-2.9907629 5.6322331 1.188529 26
-2.5799201 5.6185541 1.195899 10
-2.3697131 5.6023941 1.152464 1
-2.347378 5.6107821 1.16677 2
-2.282598 5.6162872 1.195609 3
-2.1732848 5.6304536 1.1704627 2.1666667
-1.8362287 5.6315942 1.1851959 39.583332
-1.7797391 5.6333489 1.1832014 100
-1.7177272 5.6174717 1.174068 41.75
-1.671836 5.6343231 1.1758205 33.5625
-1.442229 5.626616 1.198597 1
-0.71500504 5.62572 1.179723 11
-0.67700297 5.6187019 1.1855147 47.5
-0.41960001 5.6142244 1.196653 52.5
-0.21411933 5.6249986 1.182361 40.333332
-4.9062543 5.6915073 1.1678605 53.875
-4.8793631 5.6976352 1.1642309 82
-4.2561388 5.6672497 1.171947 9
-4.2472439 5.6724119 1.158627 8
-3.3232379 5.6667356 1.1822431 29.5
-3.2848871 5.6983151 1.188489 11
-3.1602452 5.6835594 1.1667796 7.5
-3.084686 5.6626911 1.157753 1
-2.180151 5.6531649 1.1764131 3
-1.8566713 5.6800828 1.181288 48.833332
-1.8167127 5.6797271 1.1764987 59.833332
-1.7941128 5.6623559 1.1857495 100
-1.6264991 5.6606412 1.191202 27
-0.73668504 5.6678071 1.186819 3.6666667
-0.69685602 5.6536741 1.1894571 55
-0.219961 5.6568251 1.1889941 75
-4.9232006 5.7114654 1.1793443 43.666668
-4.8780613 5.7119689 1.1745024 86.900002
-4.821939 5.7331548 1.1753553 81.861107
-3.3871288 5.7126451 1.1793426 37
-3.1536901 5.7067361 1.159505 6
-1.8654926 5.7184687 1.1576185 66.125
-1.8277286 5.7259889 1.169314 74.166664
-1.784772 5.7083602 1.189881 60
-5.1532931 5.7694831 1.1894355 35.625
-4.210959 5.777514 1.1832319 1
-3.50386 5.7597551 1.1595401 7
-3.4682994 5.7562418 1.1605306 7.75
-3.3685908 5.7643557 1.1874465 26.5
-3.122004 5.766799 1.164001 4
-1.8748153 5.7753057 1.1659548 79.199997
-1.8403034 5.7636433 1.163363 100
-4.8684692 5.8040738 1.199852 100
-4.8227968 5.8318291 1.198601 100
-4.35252 5.824614 1.152402 51.5
-4.2596312 5.8383322 1.150262 1
-4.2345953 5.8264232 1.1817971 4.5333338
-3.52145 5.8377032 1.1909024 60.347225
-3.495997 5.834537 1.195145 30
-3.3371735 5.8219719 1.1877824 40.6875
-1.997004 5.8367901 1.195907 1
-1.9201394 5.8276916 1.177569 43.25
-1.8673991 5.8255882 1.1700732 84.571426
-1.847833 5.8013101 1.153016 100
-4.783215 5.866888 1.1989141 100
-4.3781099 5.8681374 1.1632394 51.333332
-4.260931 5.8867302 1.1773756 15.5
-4.2461128 5.8603573 1.1747775 14
-3.5254452 5.8610015 1.1800777 48.408333
-3.4940209 5.8698621 1.167966 62
-3.3254631 5.8777661 1.179311 38.833332
-1.95182 5.8998241 1.196929 51
-1.9265076 5.8744922 1.1936117 41.833332
-1.8851725 5.8786812 1.181717 99.224998
-0.081816249 5.870966 1.1935595 69
-4.4126158 5.9298906 1.1786735 43.25
-4.2705951 5.9172773 1.1604414 16.5
-3.3574691 5.9334788 1.198194 36.5
-3.3247328 5.9237843 1.1929461 60.947918
-2.66432 5.9278841 1.165158 5.375
-2.6469491 5.935513 1.172361 8
-1.912537 5.9322281 1.1931565 80.375
-1.89238 5.921999 1.193776 44
-4.3097291 5.997705 1.167393 18
-4.293056 5.9616046 1.1641765 18.5
-3.477066 5.9896002 1.175698 5
-3.3763647 5.9785328 1.1712368 72.784721
-3.3342018 5.9676476 1.1830639 42.650002
-3.164999 5.9969778 1.1578979 1
-2.6749973 5.9610357 1.1841514 4.25
-2.6211531 5.999629 1.1918 1
-2.0139151 5.9873295 1.155827 90.333328
-1.993014 5.964591 1.1522191 105.5
-1.9113564 5.981492 1.1563635 99.625
-4.3225946 6.0309381 1.1706235 13.25
-3.4196105 6.0282145 1.1765815 46.5
-3.30777 6.0104961 1.169838 9
-3.154978 6.0326924 1.17975 39.666664
-3.132163 6.0212965 1.1961398 69.291664
-2.6350529 6.0154319 1.188877 1
-2.0373456 6.0205073 1.1614007 77.333336
-1.950259 6.0318599 1.172556 100
-1.9253941 6.0204983 1.1621624 80.520836
-3.428359 6.0706587 1.1798249 31.375
-2.425287 6.0831747 1.1536245 4.75
-2.0784392 6.0788713 1.17118 60.166668
-1.9760853 6.0797276 1.1864659 100
-1.9424214 6.0634947 1.1790435 81
-4.3676581 6.1098351 1.1766371 3
-3.8588066 6.1258793 1.158402 100
-3.833071 6.1439261 1.167884 100
-3.4289839 6.1290612 1.183871 9
-3.260056 6.1370549 1.16372 18
-3.1624579 6.102798 1.166411 1
-2.4189701 6.1123848 1.159915 1
-2.1134005 6.1210027 1.1779557 52.166668
-2.094399 6.10499 1.175661 50
-2.0079999 6.1135998 1.197649 100
-1.99271 6.1052961 1.19412 100
-4.3725982 6.1686945 1.1842275 4.5625
-4.3250365 6.1920075 1.1832403 3.1944447
-4.2751203 6.1863565 1.1787269 2
-4.2369132 6.1892591 1.193247 2
-4.1542072 6.188704 1.150773 69
-4.1219797 6.1970906 1.154671 80.25
-3.810714 6.1516619 1.173667 100
-3.7725511 6.1592503 1.1818075 100
-3.743613 6.1742282 1.190848 100
-3.4286511 6.1631842 1.186205 3
-2.1425245 6.1728086 1.1869395 57.25
-2.0562849 6.1951971 1.1517611 100
-4.3352942 6.2192183 1.1763295 1.375
-4.2750664 6.2234917 1.1733719 3.2444446
-4.2242718 6.2237277 1.1873982 2.5833333
-4.167275 6.2319369 1.1916653 2
-4.1154137 6.2221045 1.1766546 41.5
-4.0822043 6.2155738 1.161456 79.333336
-4.04599 6.2351871 1.1683034 38.666668
-3.428396 6.2183909 1.1899855 5.5
-3.3655131 6.217793 1.159115 22
-3.3126121 6.2216101 1.1775759 16
-3.2258768 6.2273064 1.1808391 1
-3.170696 6.2109632 1.175675 1
-2.252811 6.2291951 1.18305 10
-2.2083721 6.242425 1.197634 1
-2.1764448 6.2196274 1.1946627 33.166668
-2.0716908 6.2284889 1.1562182 98.986107
-4.2267933 6.2577863 1.1649023 4.9250002
-4.1757374 6.2707634 1.1748214 4.8148146
-4.1290693 6.2779622 1.1929208 2.6666667
-4.0554891 6.2981362 1.18309 1
-4.0249419 6.2509918 1.173351 2.5
-3.3710361 6.2759228 1.1785581 22.5
-2.8896711 6.2960901 1.1563801 2
-2.4397609 6.2804222 1.153679 3
-2.2790935 6.2794571 1.1933775 1
-2.1140115 6.2813087 1.1719427 98.305557
-2.089056 6.2570391 1.160925 99.75
-4.1201749 6.3088169 1.1807545 5
-4.0713935 6.3239436 1.1798867 5.4444442
-4.0325708 6.3382692 1.1839914 6
-3.766094 6.3043242 1.1618479 96
-3.7256615 6.3304234 1.1703675 98.25
-3.668011 6.3488069 1.178499 93
-3.4200411 6.311717 1.17809 24
-3.3736169 6.3343172 1.196679 24
-3.014746 6.3068838 1.170246 1
-2.9729011 6.3428593 1.1692945 6.3333335
-2.9226036 6.3286724 1.1629391 12.7
-2.8903279 6.3188729 1.158577 10
-2.6231551 6.3364301 1.150167 1
-2.4725671 6.3250089 1.164711 15
-2.4365141 6.3207893 1.159338 13.666667
-2.1665695 6.3395739 1.1914887 65.645828
-2.1321862 6.3158641 1.1815643 81.53125
-4.023211 6.3607311 1.1864041 4.8472223
-3.974844 6.3718352 1.1904745 3.1666667
-3.6718316 6.3572388 1.1799874 96.5
-3.6203744 6.3807735 1.1886873 97.333336
-3.4687929 6.380662 1.19095 30
-3.0630579 6.3946819 1.154318 33
-2.9696746 6.3686166 1.171242 10.833333
-2.9499049 6.3703699 1.169461 16
-2.5208099 6.3868966 1.179777 12.638889
-2.4834192 6.3583794 1.1709987 14.5
-2.3280845 6.3840141 1.1599395 15.7875
-2.1757755 6.3790016 1.1971015 98.611115
-3.9559319 6.4211149 1.195365 1
-3.5953059 6.404285 1.1954269 81
-2.5715494 6.4267273 1.1914325 12.354167
-2.5463095 6.4179373 1.1872439 12.125
-2.3719831 6.4247375 1.1724464 12.425926
-2.3456879 6.4124379 1.1676 14.083333
-3.0800304 6.4664397 1.1718663 88.333336
-3.0350256 6.4872885 1.1860175 76.5
-2.6097729 6.4553971 1.199729 1
-2.5964231 6.4568477 1.1984205 6.75
-2.4183855 6.4829297 1.1933831 6.75
-2.3883023 6.4563241 1.1817583 9.166667
-2.3439109 6.4906278 1.1750391 1
-3.017036 6.51123 1.196165 82
-2.9844739 6.5027161 1.199622 74
-2.4702954 6.5453997 1.1640065 52.375
-2.410228 6.5279217 1.1756779 46.583332
-2.396282 6.540678 1.167899 35
-2.4855444 6.5537419 1.1644161 32.5
-3.224803 6.6244793 1.1558155 15
-3.179328 6.6425681 1.1627811 18.166666
-2.570991 6.6315002 1.1718035 29.5
-2.4010179 6.6385512 1.183913 1
-2.304302 6.64745 1.191137 10
-3.0722532 6.6824059 1.178434 4.3333335
-2.6041911 6.6870761 1.178901 37
-2.318157 6.673295 1.194623 26
-3.0766845 6.7109179 1.1829655 7.75
-2.720752 6.74435 1.180452 29.5
-2.6803429 6.7325754 1.181311 52.400002
-2.6226699 6.705554 1.180752 23
-2.3312719 6.703227 1.1988291 28
-3.1283269 6.7512259 1.1500911 8.5
-3.058913 6.7868919 1.16198 13
-3.0292301 6.7952728 1.1658109 12.5
-2.7613499 6.770762 1.182016 33
-2.7415559 6.7532701 1.180476 47
-2.657856 6.7923002 1.1929491 27
-3.0074339 6.817965 1.17146 13
-2.9718029 6.8298283 1.1762923 11.166667
-2.9451821 6.824162 1.177385 2
-2.790858 6.8277678 1.1895519 6
-2.6721449 6.8087921 1.194744 36
-2.8599689 6.8778338 1.192997 2
-2.8375015 6.8966913 1.1978586 3
0.27526 -3.112854 1.2030751 100
0.32421565 -3.0821896 1.206707 100
0.37322998 -3.0582771 1.2136664 100
0.39737299 -3.045208 1.210654 100
0.42625067 -3.0334511 1.2198321 100
0.46735001 -3.0107253 1.2227373 100
0.491227 -2.987808 1.231775 100
0.52031231 -2.9788325 1.2302086 100
0.556045 -2.963655 1.2362605 100
0.58322203 -2.9485304 1.2400935 100
0.62172896 -2.9302809 1.2441964 100
0.66870201 -2.9001081 1.248806 100
0.99559498 -2.7044699 1.202002 100
1.0222501 -2.7018881 1.205966 100
1.045817 -2.691838 1.209569 100
1.078351 -2.670172 1.2146615 100
1.119499 -2.650141 1.2030309 100
1.1274023 -2.6363971 1.2167393 100
1.176015 -2.6182947 1.2218136 100
1.210289 -2.6095009 1.2021534 100
1.1999429 -2.5973761 1.234055 100
1.2366494 -2.5841432 1.2269151 100
1.2725443 -2.5700083 1.2248989 100
1.3047611 -2.5588901 1.216396 90
1.293957 -2.5376091 1.235859 100
1.332976 -2.5456259 1.240851 100
1.355826 -2.525871 1.245658 100
1.7748725 -2.1291976 1.2124491 44.5
1.8150116 -2.1146696 1.2295136 7
1.8734254 -2.0827105 1.246253 44.333332
2.2756326 -1.9691104 1.2049423 64
2.3233049 -1.974674 1.210711 82
2.332355 -1.9386081 1.216043 72
2.3591149 -1.921492 1.2217259 46
2.4310019 -1.850655 1.201012 30
2.4747109 -1.8257886 1.2105237 29.666666
2.5253789 -1.811978 1.22061 29
2.5738029 -1.8051951 1.2141819 44.5
2.5732391 -1.7715609 1.232113 29.5
2.6299484 -1.772992 1.2212846 49.666668
2.667634 -1.759238 1.2182684 60
2.7073231 -1.7541341 1.2257251 60
2.603816 -1.74861 1.2393219 29
2.6565461 -1.736104 1.249938 29
2.7342675 -1.73087 1.232155 52.5
2.7610769 -1.707504 1.238606 60
2.777565 -1.68949 1.242846 60
2.81601 -1.699826 1.249155 44
2.8329365 -1.6477051 1.2058655 84
2.8704612 -1.6291106 1.2186303 82.75
2.912384 -1.6167021 1.232736 84.5
2.9324315 -1.592828 1.2401505 83
2.954844 -1.589119 1.2476881 82
3.368413 -1.2711345 1.2061555 112
3.386023 -1.246935 1.213439 112
3.423691 -1.2318816 1.2251014 115
3.4639769 -1.203989 1.2389314 116.5
3.4910851 -1.1918271 1.247552 115
3.5863349 -1.15643 1.202238 50
3.619736 -1.150889 1.209056 51
3.646565 -1.140504 1.215253 53
3.6799133 -1.1219651 1.2163566 55.333332
3.7290516 -1.1201676 1.2182844 60.666668
3.7717359 -1.115057 1.219295 64
3.7479961 -1.092211 1.239926 47
3.7798181 -1.0881075 1.2351595 56
3.8324959 -1.0859016 1.2239996 69
3.878886 -1.0797743 1.2172295 76.25
3.9162714 -1.0577285 1.2185615 77
3.87695 -1.044364 1.247052 70
3.942987 -1.047684 1.227324 80
3.9540033 -1.0233159 1.2295899 60
3.937712 -0.978576 1.231351 42
3.8968029 -0.90232903 1.238289 38
3.905946 -0.92918301 1.2417949 43
3.8699 -0.859496 1.248296 38
3.846154 -0.818856 1.245086 35
3.7961049 -0.73822498 1.206287 37
3.7414291 -0.65851998 1.212283 38
3.6951711 -0.584108 1.2186379 40
3.6668949 -0.52220303 1.2255239 43
3.615736 -0.44726801 1.231258 47
3.5785511 -0.38353899 1.237136 39
3.559525 -0.332093 1.24361 39
3.522572 -0.26771399 1.249683 41
3.4168055 -0.171598 1.2481745 79.5
3.3945229 -0.100102 1.247645 90
3.408309 -0.13276599 1.2489873 79.333336
3.3752525 -0.068849333 1.2445143 87.333336
3.338686 -0.0118935 1.2384646 86.5
3.353332 -0.036589 1.240687 86
3.3163795 0.026219333 1.2351856 82.333336
2.9330304 0.073733747 1.2128664 73
2.975462 0.086103 1.2297263 74.333336
3.0302801 0.084965996 1.2498339 49
3.2876015 0.068744004 1.2303905 77.75
2.9999299 0.101435 1.2404 75
3.2437329 0.148378 1.224802 76
3.268276 0.11876567 1.2294286 80
3.2367938 0.17758 1.2257169 71.333336
3.209486 0.22183599 1.2219094 75
3.3364 0.233643 1.205721 30
3.1823471 0.27309775 1.2190485 78.75
3.321012 0.26567799 1.206753 27
3.1628952 0.323589 1.2186589 83.666664
3.2795706 0.32917398 1.2059205 27.5
3.1219432 0.36900997 1.2110586 86.333336
3.25003 0.38222799 1.206591 28
3.0847828 0.43543664 1.2073083 80.666664
3.1074769 0.40753999 1.211078 91
3.2303338 0.42710251 1.2085855 32
2.8844781 0.49201399 1.241931 2
3.0623231 0.48024151 1.20575 76
3.1947441 0.48409301 1.20832 30
2.8804615 0.51523304 1.2432384 1
3.0454819 0.5186367 1.2052687 75.333336
3.17116 0.53081095 1.2096165 32.5
3.0159807 0.57597297 1.2033592 73.5
3.136236 0.585765 1.2092381 35
2.9934449 0.61794251 1.201781 76
3.115799 0.62877047 1.210809 33.5
2.9664006 0.67096353 1.2004105 82.5
3.088335 0.67578202 1.2111681 34
2.943722 0.729159 1.201316 82
3.0703936 0.71584046 1.212962 34.5
2.7957201 0.79114997 1.245898 49
2.8033035 0.78502548 1.248062 48.5
3.0337696 0.77794397 1.2133975 35.5
2.7829552 0.83238298 1.2464896 46
2.994283 0.83266699 1.211852 35
2.7658119 0.87747198 1.245944 48.5
2.9752007 0.87173498 1.213235 34.5
2.7404084 0.92131746 1.241997 50.5
2.9486799 0.932078 1.2162091 38
2.965512 0.90361398 1.215975 34
2.7188418 0.97288465 1.2407476 52
2.912241 0.98139 1.2146475 36.5
2.6944768 1.0302759 1.2393249 53.833332
2.706326 1.014223 1.241732 51
2.8856881 1.03892 1.217213 35
2.9034441 1.011536 1.217384 41
2.6809776 1.0765454 1.2407573 57
2.8484659 1.094934 1.216635 27
2.86745 1.065623 1.216799 32
2.645272 1.1401795 1.2359225 61
2.653456 1.1172971 1.235751 59
2.8276789 1.125196 1.21615 11
2.6321485 1.1696903 1.2351336 61
2.7820599 1.171909 1.211692 1
2.5984459 1.240448 1.232478 61
2.6115234 1.2141961 1.233676 58
2.7421589 1.2204771 1.209142 1
2.5842762 1.2763084 1.2324343 61.166668
2.6919351 1.2962639 1.208524 1
2.7115121 1.261554 1.207853 1
2.5484591 1.347543 1.229341 68
2.5726752 1.3180073 1.2344853 62.333332
2.7350116 1.3183677 1.224371 4.8000002
2.5399313 1.3731793 1.2301213 69.666664
2.7227485 1.374964 1.231039 19
2.5175259 1.4259595 1.2298324 70.625
2.6378281 1.428089 1.2025501 67
2.6856422 1.431613 1.2308604 45.333332
2.4885433 1.4822007 1.2275572 67
2.504353 1.465333 1.231221 68
2.5877349 1.4866892 1.2053519 71.333336
2.613081 1.471446 1.2034509 66.5
2.6611562 1.4802575 1.2328064 52.5
-0.51134199 1.536393 1.212373 51
2.4750996 1.5257813 1.2297671 71.6875
2.533371 1.544926 1.217412 74
2.5634589 1.5203698 1.2121007 71.5
2.6159611 1.546707 1.232235 47
2.6506169 1.506584 1.234641 51
-0.5895375 1.580265 1.2125604 42.5
-0.51169902 1.562286 1.215286 48
-0.48608199 1.5806986 1.221048 66
-0.356767 1.59768 1.247013 36
2.4642229 1.5761262 1.2238653 68.75
2.5337894 1.5753763 1.2345955 71.5
2.5726738 1.5821351 1.2171611 46.333332
2.6047225 1.5785525 1.2349191 48
-0.57515496 1.6257931 1.2196475 61
-0.504987 1.642853 1.231321 68
-0.4619725 1.6144075 1.2284235 61.5
-0.41970527 1.63264 1.238059 57.25
-0.34328201 1.641489 1.248976 56
2.426023 1.6254557 1.2275633 66.25
2.5255721 1.601285 1.246305 77
2.5686505 1.6255981 1.2294105 62.666668
-0.56135499 1.65763 1.225166 59
-0.54004103 1.657482 1.22811 58
-0.48631251 1.6578345 1.2356745 52
-0.44917199 1.651916 1.240229 48
-0.38581902 1.652792 1.2440569 60.5
2.3825519 1.6919916 1.221881 1
2.411067 1.660002 1.227857 5.666667
2.5332754 1.6801912 1.2335743 62.125
2.5575869 1.662416 1.2371449 52
2.391171 1.709121 1.229069 1
2.4075382 1.7265787 1.2397751 1.125
2.4896059 1.742644 1.249421 49
2.5156531 1.7228056 1.2340394 52.700001
2.3920953 1.7824844 1.2447443 1
2.400907 1.765895 1.245073 1
2.4842851 1.7748225 1.239717 47.25
2.3758502 1.8332672 1.2374766 1.2
2.4264052 1.8298897 1.2140733 3
2.4664125 1.8195029 1.2408806 41.666668
2.3384326 1.8932154 1.2455289 1
2.355407 1.864903 1.2466409 1
2.4177129 1.8744849 1.224656 1.1666666
2.4756489 1.8774455 1.204453 1
2.5022299 1.86369 1.206858 1
2.3219407 1.9297557 1.2466458 1
2.3707147 1.9283199 1.2156126 1.3333334
2.4200685 1.9166479 1.2319485 1.1666666
2.4798143 1.9252845 1.2149992 1
2.2898419 1.99519 1.2479039 1
2.3305099 1.978532 1.20065 1
2.4389937 1.9791943 1.2198427 1
2.2750785 2.0177631 1.2468369 1
2.3108797 2.0279725 1.2049497 1
2.3896921 2.0492489 1.221916 1
2.4170046 2.0269494 1.2222229 1
2.2924633 2.0703211 1.2082145 1
2.396827 2.0689399 1.224751 1
2.1882095 2.1426449 1.2397685 1.125
2.2119141 2.1215849 1.244879 1
2.2743816 2.1137645 1.2121116 1
2.3424325 2.134418 1.228687 1
2.354135 2.1097286 1.227355 1
2.1659529 2.1735442 1.2380462 13
2.2324951 2.1863451 1.208643 2
2.2544224 2.1721525 1.2063761 2
2.3254235 2.1702182 1.2314836 1
2.1415639 2.2272866 1.2419269 21.9
2.1614821 2.2020681 1.243862 21
2.226433 2.233345 1.2306845 1.8333334
2.2947822 2.2114995 1.2358556 1
2.305172 2.232995 1.24181 1
2.1251576 2.2738161 1.2340212 16.318182
2.169385 2.2527618 1.2293456 2
2.2120407 2.2747877 1.2358841 2.3333333
2.0816805 2.3280861 1.239571 17.083334
2.1150734 2.3187921 1.2164478 17.35
2.1651585 2.3207994 1.2299571 1.5
2.0811296 2.3810539 1.218769 21.1
2.1319532 2.3678763 1.2285446 9.5555553
2.035223 2.433008 1.225282 56
2.0706565 2.4258373 1.2210369 23.285715
2.1096599 2.4318132 1.2408986 5.3333335
2.0358543 2.4778919 1.220485 23.625
2.0707874 2.465373 1.233211 15.75
1.9822896 2.5436358 1.2140939 18.75
2.0219233 2.5253172 1.2310134 22.527779
2.0650265 2.512253 1.247347 8
1.9359889 2.5898595 1.2203305 11
1.9802259 2.5821307 1.2321092 24.190477
2.006381 2.559979 1.235692 26.666666
1.8935206 2.641351 1.2391214 11
1.9229774 2.6181641 1.2308483 15.75
1.966571 2.6276982 1.2360256 32.309525
1.9290396 2.6845043 1.2344574 37.42857
1.9583321 2.6627166 1.213026 39.75
-4.9127712 2.7481661 1.204392 94.5
1.919576 2.7222056 1.2167984 47.452381
1.9765105 2.7373095 1.201165 11
-4.9260111 2.783782 1.2117684 93
1.8872224 2.783761 1.2203984 49.208332
1.9232628 2.7790527 1.2167364 34.599998
1.955429 2.7600729 1.201057 11
-4.9539752 2.8402579 1.225089 97
-4.9359016 2.8210325 1.2188184 98.25
1.8777603 2.8221951 1.2310405 42.833332
1.92003 2.8225713 1.2068053 11
-4.9715738 2.8808928 1.2343838 93.875
1.764154 2.8922341 1.203521 11
1.8434916 2.8851364 1.2423927 38.25
1.8730921 2.8731036 1.2218379 34.285713
-5.0056729 2.9345541 1.2491 93
-4.9947715 2.9147234 1.2439656 93.666664
1.7385764 2.9313185 1.2187685 11.5
1.761938 2.92328 1.218521 11.5
1.8365294 2.9218011 1.2323354 34.642857
1.858253 2.9206934 1.2100222 23.052084
1.6954091 2.9935441 1.2428 11
1.7175555 2.9693885 1.2343045 11.25
1.8283131 2.9692829 1.2170124 25.666666
1.498939 3.044714 1.2339261 91
1.5307449 3.0422211 1.2364231 61.291668
1.68699 3.0040901 1.246719 11
1.7812771 3.0290525 1.2254006 4.9166665
1.8120073 3.0122907 1.2248201 15.388889
1.3914526 3.093549 1.2466154 68.25
1.4921179 3.0720041 1.2293096 56.638889
1.509299 3.0618651 1.201656 100
1.562855 3.0626931 1.21885 40
1.728583 3.070982 1.22884 7
1.7821109 3.0740364 1.2308165 65.675003
1.516798 3.1286139 1.23194 24
1.5797501 3.1287255 1.214777 19
1.60659 3.1403401 1.227976 9
1.7401143 3.1315761 1.236815 11.125
1.7697631 3.1148508 1.219874 85.25
-4.7214961 3.1874311 1.201551 21
1.438475 3.1872208 1.2386173 66.333336
1.453123 3.1648841 1.237154 30
1.50746 3.1875286 1.231739 37.5
1.669839 3.159905 1.225498 2
1.7377424 3.1775367 1.2267265 75.5
1.7609717 3.1555591 1.2173797 100
-5.1676559 3.2315516 1.2056999 92.75
-4.75214 3.229851 1.216247 16
-4.7393999 3.2273679 1.2149495 17.5
1.4222709 3.2192068 1.2422516 59.333332
1.5270183 3.2278099 1.2400066 72.67778
1.57169 3.2331836 1.2311599 99
1.6860811 3.2094491 1.216416 61
1.7239343 3.2170877 1.22894 100
-5.1827192 3.272541 1.220705 74
-4.8112316 3.2860889 1.236573 21.5
1.393971 3.2980659 1.201574 74
1.492448 3.2829235 1.232144 75
1.526104 3.2702813 1.2232306 92.800003
1.5614165 3.2644238 1.206563 88.5
1.642458 3.283309 1.202211 67
1.6683509 3.260217 1.20117 65
-5.2215967 3.3208215 1.2321143 87.25
-4.8105841 3.3146939 1.245716 14
1.2754087 3.3381028 1.2061697 173.30954
1.3239497 3.3247135 1.206285 104.75
1.356213 3.3094721 1.20207 96
1.4757097 3.3252223 1.2250013 100
1.5096118 3.3136897 1.2150983 85.25
1.55081 3.3440011 1.243297 35
-5.2430062 3.3524721 1.242067 79
1.2437299 3.3688462 1.2119313 94.416664
1.268491 3.3611174 1.2150595 71.5
1.315457 3.354851 1.2232521 122
1.4254524 3.3805885 1.2200464 78.833336
1.4619563 3.3747337 1.220903 81.099998
1.3824114 3.4249265 1.221046 99.666664
1.4246945 3.411572 1.2258899 82.333328
1.453737 3.4111691 1.229874 73
1.296361 3.4655671 1.209749 13
1.335021 3.4931631 1.2004189 86
1.362413 3.4551623 1.2243198 92.833336
1.447183 3.4599161 1.245948 49.5
1.457696 3.487124 1.205515 93
0.112763 3.5452759 1.209722 1
0.45917898 3.5444591 1.231827 1
0.760764 3.524837 1.202196 1
1.3350797 3.5359766 1.2251292 91.875
1.3517516 3.5057149 1.2061095 91
1.461044 3.5105381 1.213897 54
0.087577 3.579047 1.2098235 33
0.100339 3.5577259 1.208895 12
0.32841334 3.5839164 1.202378 12.5
0.438425 3.5716331 1.24209 1
0.71351701 3.5620699 1.20119 1
1.2537349 3.5957069 1.211274 64
1.3348776 3.5743065 1.2334636 79
1.3595223 3.5603981 1.2202973 99.666664
1.4939131 3.589962 1.247081 32
0.035032667 3.6371706 1.2077256 44
0.058633 3.607919 1.2079666 41.75
0.14240751 3.6394095 1.2386235 63.5
0.17373051 3.6232891 1.244922 77.75
0.29198599 3.642935 1.2068371 5
0.31518802 3.6285477 1.2091304 7.4166665
0.70018703 3.643925 1.2174031 1
1.012877 3.6429429 1.24273 24.666668
1.1389124 3.6291413 1.2375427 17.291668
1.173481 3.6154575 1.2400417 20.354166
1.3372456 3.6246035 1.2051343 52.5
1.360824 3.623575 1.206616 5.5
-4.3822079 3.6851885 1.2058283 76
0.013486 3.6735961 1.2096982 22.083334
0.136518 3.6605949 1.244071 31
0.293147 3.6592729 1.210797 1.5
0.32837301 3.6729674 1.222295 1
0.37573799 3.6820879 1.235672 1
0.70286328 3.6699641 1.2240597 1
0.9876498 3.669915 1.2439722 32.349998
1.006188 3.69732 1.2026891 44.5
1.1282865 3.6648841 1.2365074 50
1.1814435 3.662951 1.2039903 38.866665
1.222628 3.6745296 1.2164435 47.166668
1.3601587 3.6685669 1.2194066 76.599998
1.481101 3.6564381 1.208163 24
1.513253 3.6859987 1.2232715 91.916664
-4.4064116 3.7336195 1.2212191 72.5
-4.3881292 3.7112851 1.212955 73
0.018611668 3.7189848 1.2211851 8.666667
0.27091849 3.7373636 1.22349 1
0.31766582 3.7201161 1.2306379 1
0.70656598 3.7112012 1.234581 1
0.98540932 3.7277372 1.2249964 35.027775
1.0126134 3.7354586 1.2066836 24.166666
1.229019 3.7414429 1.211169 52
1.380855 3.7137485 1.2371576 58.875
1.400715 3.7346799 1.247716 65.5
-4.4334402 3.7725792 1.2349546 64.375
0.031206498 3.7713318 1.2366927 8.875
0.188986 3.7977021 1.218191 1
0.25980732 3.7822673 1.2314757 1
0.30098999 3.7721889 1.238928 1
0.71001798 3.7619934 1.247499 1
0.98968399 3.7692056 1.2210855 36
1.028253 3.7639041 1.2146695 21.5
1.0671854 3.7806416 1.2252254 18.5
1.109199 3.791347 1.234821 10
1.298172 3.7984149 1.212886 33.5
1.310106 3.794564 1.214142 31.25
-4.4602013 3.8054876 1.2472765 55
0.025663665 3.8108437 1.2444987 9.416667
0.19048767 3.8308973 1.226604 1
0.21624249 3.8408489 1.2352209 1
1.0416141 3.8496671 1.238091 14
1.067107 3.83915 1.239696 22
