# This PCD file was generated using the MATLAB® pcwrite function
# from Computer Vision Toolbox®.
# .PCD v.7 - Point Cloud Data file format
VERSION .7
FIELDS x y z intensity
SIZE 4 4 4 4
TYPE F F F F
COUNT 1 1 1 1
WIDTH 1281
HEIGHT 1
VIEWPOINT 0 0 0 1 0 0 0
POINTS 1281
DATA ascii
7.667270 3.521311 1.003147 39.000000
7.729428 3.510651 1.010333 36.000000
7.251175 3.545641 0.993474 1.000000
7.912955 3.548929 0.998536 40.000000
7.970827 3.547390 1.006085 33.000000
8.025503 3.543006 1.012835 41.000000
-1.002624 3.555188 1.002357 11.000000
3.901381 3.558969 1.005759 62.000000
3.931658 3.559954 1.011933 51.000000
3.952456 3.558767 1.015672 32.000000
7.231678 3.559991 0.992418 6.000000
7.874918 3.559036 0.994803 40.000000
-1.011589 3.591462 1.013114 13.000000
6.183499 3.599599 0.993807 48.000000
6.215891 3.588681 0.997340 46.500000
6.256390 3.583048 1.002992 48.000000
6.294115 3.584022 1.009209 46.000000
-0.986720 3.610699 1.014874 11.666667
3.880492 3.621775 1.005385 77.500000
3.932987 3.615183 1.013838 66.000000
7.164740 3.620654 0.996969 40.000000
7.252117 3.618635 1.011068 45.000000
7.281734 3.610384 1.015042 45.000000
3.812044 3.643180 0.998461 83.000000
3.839276 3.639107 1.002507 80.000000
3.856940 3.633005 1.004117 80.000000
3.920756 3.627028 1.014914 69.000000
6.323626 3.640690 0.992721 49.000000
6.367001 3.643053 1.000019 48.000000
6.401821 3.640571 1.005161 46.000000
6.453038 3.636397 1.012658 45.500000
7.222913 3.625819 1.007056 46.000000
3.797491 3.662233 1.001428 83.000000
4.108481 3.668353 0.992031 28.000000
4.192741 3.651299 1.006771 11.000000
5.130755 3.666158 0.992090 9.000000
5.181672 3.659574 0.999802 9.000000
5.222637 3.654260 1.006050 2.000000
5.254490 3.670328 1.014170 6.000000
5.760821 3.663321 0.999216 1.000000
5.783165 3.657302 1.001860 1.000000
5.811004 3.653490 1.005645 1.000000
5.855131 3.660503 1.013367 38.000000
6.154295 3.665128 1.007035 49.000000
6.195831 3.671381 1.015769 46.000000
3.772482 3.675722 1.000766 84.666664
4.355799 3.699273 1.001405 10.000000
4.411281 3.694113 1.010358 10.500000
5.071846 3.699370 0.994057 12.000000
5.108409 3.681747 0.993605 9.500000
5.130085 3.696341 1.001014 10.000000
5.160325 3.683751 1.002519 10.000000
5.194761 3.692655 1.009235 9.500000
5.220475 3.677536 1.010190 9.500000
5.772861 3.691911 1.004838 1.000000
6.081203 3.677238 0.994905 42.000000
6.123591 3.674803 1.002568 46.000000
3.656444 3.708488 1.004324 59.750000
3.733644 3.719380 1.006836 78.000000
3.757817 3.707919 1.007835 80.500000
4.387355 3.705038 1.008586 10.000000
4.652435 3.720177 0.995301 8.000000
4.680655 3.705315 0.997579 8.666667
4.720283 3.700789 1.003592 8.000000
4.765825 3.705512 1.012219 8.500000
5.096041 3.706569 0.998052 12.000000
5.281195 3.714868 1.006774 2.500000
5.719206 3.710019 0.999025 1.000000
5.761566 3.705910 1.004959 1.000000
3.635747 3.731232 1.007566 32.000000
3.728356 3.730491 1.009276 80.000000
5.188624 3.731736 0.993893 9.000000
5.211861 3.729958 0.997617 9.000000
5.250224 3.730492 1.004509 9.000000
8.372055 3.736383 0.996747 26.000000
8.417995 3.735674 1.004049 24.000000
8.465853 3.735263 1.011712 26.000000
3.700728 3.769900 1.016393 62.000000
4.418332 3.770237 1.014288 10.000000
4.560083 3.765813 0.992322 10.000000
4.594975 3.770974 1.001038 10.500000
4.621467 3.758728 1.004064 10.000000
4.651594 3.762203 1.011428 10.500000
5.255779 3.752619 0.999558 1.000000
5.279563 3.753605 1.004648 1.000000
5.825046 3.760698 0.994140 71.250000
5.856153 3.759194 1.002479 70.000000
5.883095 3.755752 1.009079 65.500000
6.132949 3.769250 0.995211 66.000000
6.173553 3.769538 1.006160 60.833336
6.209332 3.770145 1.015947 58.000000
6.539631 3.768267 1.004578 53.000000
6.569843 3.770489 1.012569 53.000000
6.938144 3.767409 0.991938 43.000000
6.962512 3.762974 0.996409 45.000000
6.994623 3.768265 1.004590 45.000000
7.028375 3.768399 1.012091 48.000000
7.514123 3.771585 0.992134 32.000000
7.538835 3.768825 0.996389 32.000000
7.563316 3.766474 1.000677 31.000000
7.620816 3.770984 1.012541 35.000000
2.129492 3.791899 0.993429 30.000000
4.278571 3.796813 0.995507 70.000000
6.508683 3.776170 0.998830 56.666668
3.472758 3.823609 0.993494 76.000000
3.596641 3.821959 1.015253 77.750000
2.056621 3.837358 1.000661 27.000000
3.355664 3.847505 0.992081 82.500000
3.390342 3.841450 0.995645 84.666664
3.426664 3.838125 0.995594 78.833328
3.455773 3.849146 1.004937 85.000000
3.477721 3.845556 1.007697 80.500000
3.499657 3.833481 1.005339 79.125000
3.537515 3.826087 1.007506 79.000000
3.569470 3.831468 1.014092 76.222221
1.976143 3.870459 1.003605 74.750000
2.012987 3.874118 1.008478 79.500000
1.918618 3.882221 1.002113 41.500000
1.946684 3.881401 1.004453 76.250000
2.040215 3.875459 1.011697 82.000000
1.900449 3.902321 1.007218 2.000000
1.841274 3.931812 1.011994 1.000000
-0.838745 -2.468571 1.040825 100.000000
-0.799881 -2.466892 1.032141 100.000000
-0.763901 -2.467781 1.024115 100.000000
-1.297753 -1.942398 1.041817 100.000000
-1.302152 -1.916847 1.041549 100.000000
-1.296104 -1.881949 1.039591 100.000000
-1.300975 -1.855501 1.039399 100.000000
-1.300965 -1.825501 1.038457 100.000000
-1.297631 -1.793186 1.037013 100.000000
-1.299619 -1.751688 1.036053 100.000000
-1.306646 -1.709706 1.035815 100.000000
-1.307563 -1.681097 1.035151 100.000000
-1.287393 -1.637501 1.031180 100.000000
-1.297140 -1.601151 1.031596 100.000000
-1.304388 -1.548892 1.031323 100.000000
-1.290779 -1.496779 1.028181 99.000000
-1.295655 -1.471901 1.028315 94.000000
-1.301119 -1.433493 1.028271 97.000000
-1.306360 -1.395128 1.028238 99.000000
-1.290687 -1.343088 1.024983 100.000000
-1.302203 -1.310787 1.026064 100.000000
-1.300709 -1.283781 1.025383 100.000000
-1.304705 -1.259091 1.025560 100.000000
-1.286915 -1.220476 1.022352 100.000000
-1.284955 -1.178809 1.021454 100.000000
-1.301191 -1.148882 1.023445 100.000000
-1.301270 -1.122234 1.023121 100.000000
-1.294487 -1.091452 1.021749 96.000000
-1.290940 -1.062834 1.020904 99.000000
-1.299191 -1.029743 1.021811 97.000000
-1.292552 -0.986492 1.020424 100.000000
-1.284739 -0.942900 1.018907 99.500000
-1.280077 -0.901471 1.017925 100.000000
-1.425271 -0.173989 1.019686 53.000000
-1.435852 -0.127389 1.026358 35.000000
-1.426197 -0.148495 1.022163 43.000000
-1.432096 -0.102297 1.027712 27.000000
-1.433733 -0.050408 1.032826 13.000000
-1.431433 -0.074948 1.030031 20.000000
-1.438771 -0.014468 1.037360 8.500000
-1.441836 0.022279 1.041531 5.000000
-1.253341 0.018614 1.021935 50.000000
-1.261551 0.038698 1.023828 36.000000
-1.280260 0.053278 1.027366 32.000000
-1.275156 0.077789 1.027171 36.000000
-1.279019 0.109097 1.028713 50.000000
-1.277226 0.142624 1.029396 80.000000
-1.288274 0.171440 1.032168 90.000000
-1.286648 0.206315 1.033008 92.000000
-1.271667 0.234101 1.031364 100.000000
-1.285937 0.261477 1.034755 93.000000
-1.263630 0.322132 1.033089 100.000000
-1.283203 0.347966 1.037450 100.000000
-1.196003 0.326849 1.021590 46.000000
-1.293367 0.377292 1.040354 100.000000
-1.293544 0.408517 1.041644 97.000000
-1.281179 0.455784 1.041461 58.000000
-1.486610 1.695989 1.022560 29.000000
-1.489772 1.716223 1.026410 42.000000
-1.485303 1.738988 1.028962 47.000000
-1.476889 1.762420 1.030752 61.000000
-1.456789 1.787879 1.030258 81.000000
-1.465596 1.808050 1.035421 21.000000
-1.241384 2.540070 1.016911 31.000000
-1.251872 2.569017 1.022471 46.500000
-1.232657 2.596118 1.023251 66.000000
-1.241857 2.625110 1.028687 96.500000
-1.254863 2.654372 1.034776 118.000000
-1.253885 2.683073 1.038681 120.500000
-1.237240 2.720516 1.041472 100.000000
8.383047 2.888682 1.022442 1.000000
8.408069 2.913097 1.030994 6.500000
7.522125 3.498041 1.018584 57.000000
7.599671 3.495906 1.026982 58.000000
7.651097 3.493261 1.032721 55.000000
7.668909 3.487740 1.034167 57.000000
7.701227 3.483712 1.037839 53.000000
7.727484 3.483509 1.040509 53.000000
7.963644 3.494670 1.040410 38.000000
7.555503 3.501609 1.022213 61.000000
7.804053 3.505560 1.019893 38.000000
7.850522 3.501248 1.025724 38.000000
7.913561 3.503107 1.034549 40.000000
8.245107 3.520815 1.039442 35.000000
7.474188 3.544308 1.022166 16.000000
7.532395 3.544034 1.029680 37.000000
7.579740 3.538815 1.035298 55.000000
7.625297 3.532544 1.040587 58.000000
8.087614 3.541025 1.020915 35.000000
8.144674 3.535476 1.027851 37.000000
8.190247 3.526618 1.032814 33.000000
4.181553 3.561442 1.027364 45.500000
6.418045 3.570787 1.027261 46.000000
6.461201 3.573439 1.034656 43.000000
3.981870 3.576148 1.026364 28.000000
4.157598 3.588882 1.028377 82.250000
6.340910 3.588698 1.017454 46.000000
6.365468 3.580906 1.020255 49.000000
6.395194 3.575754 1.024297 49.000000
6.500538 3.574793 1.041249 43.000000
3.959548 3.618227 1.020058 55.000000
4.146635 3.609636 1.030539 66.000000
6.066852 3.616390 1.040524 26.000000
7.323937 3.607497 1.021666 42.000000
7.371584 3.606698 1.029417 37.000000
7.428305 3.609482 1.039052 39.000000
3.990027 3.625247 1.028261 43.000000
4.019395 3.639471 1.038377 32.000000
5.934409 3.643649 1.023433 48.000000
5.962403 3.638981 1.027171 41.000000
6.010721 3.646058 1.035588 68.000000
6.034938 3.639820 1.038552 66.000000
6.045576 3.625602 1.038385 30.000000
6.496952 3.629040 1.018482 42.000000
6.540173 3.631040 1.025746 46.000000
6.583945 3.627668 1.032233 51.000000
6.629494 3.629141 1.039808 46.000000
-0.981346 3.650002 1.024616 12.000000
-0.948038 3.651215 1.020591 10.000000
-0.928389 3.658170 1.019914 11.000000
5.400510 3.671831 1.034117 8.000000
5.438962 3.667784 1.038586 1.000000
5.906736 3.658949 1.021137 49.000000
6.227742 3.670843 1.021752 44.000000
6.267230 3.664838 1.028439 44.000000
6.305490 3.656821 1.034637 39.000000
-0.924474 3.680601 1.025459 11.000000
-0.892105 3.681696 1.021639 9.000000
4.447351 3.695179 1.017303 10.500000
4.469284 3.691129 1.020422 10.000000
4.496699 3.692287 1.025833 10.000000
4.531248 3.690218 1.031847 10.000000
4.567957 3.689795 1.038700 10.000000
4.808847 3.697824 1.018347 8.000000
4.893052 3.695933 1.032647 8.000000
4.925261 3.682020 1.035964 7.000000
5.287033 3.680059 1.020266 10.000000
5.314324 3.682717 1.025634 7.000000
5.341372 3.681166 1.027000 12.000000
5.372994 3.680607 1.031300 12.000000
5.449206 3.681076 1.041541 1.000000
6.037690 3.699666 1.036889 2.000000
-0.884491 3.720733 1.031299 9.000000
-0.871444 3.705314 1.025473 8.500000
-0.844187 3.711678 1.023827 9.000000
3.875288 3.704934 1.041627 106.000000
4.852029 3.703387 1.026757 8.000000
-0.835851 3.730885 1.028076 8.500000
-0.808184 3.745759 1.028822 8.000000
5.361176 3.743229 1.026857 1.000000
5.982497 3.748949 1.035713 34.500000
6.001587 3.744983 1.040077 9.500000
8.517498 3.735728 1.020127 27.000000
-0.785416 3.767460 1.032113 25.000000
3.731693 3.763333 1.020029 73.500000
4.437337 3.770092 1.017791 10.000000
4.462969 3.758564 1.019662 10.666667
4.502062 3.758549 1.027014 11.000000
4.523993 3.760544 1.031664 11.000000
4.555481 3.753296 1.035827 9.666667
4.690041 3.773432 1.022357 10.000000
4.714244 3.763956 1.025610 10.000000
4.740672 3.753796 1.029239 10.000000
4.763611 3.757310 1.035112 10.000000
5.384559 3.759724 1.027543 1.000000
5.912815 3.759968 1.018946 65.000000
5.933001 3.752544 1.022436 71.000000
5.942822 3.760872 1.027895 71.000000
5.972851 3.761541 1.036817 50.000000
6.238434 3.765303 1.022493 56.333332
6.275401 3.766320 1.032801 58.500000
6.303047 3.759698 1.038557 63.333332
6.597075 3.762216 1.017375 52.000000
6.627510 3.761080 1.024672 52.000000
6.666847 3.767876 1.036057 52.500000
7.105812 3.763727 1.028341 42.000000
7.136773 3.766623 1.035817 38.000000
7.683964 3.769607 1.024468 31.500000
7.734161 3.768458 1.033955 29.000000
7.768112 3.768043 1.040442 29.000000
-0.777234 3.787243 1.036652 34.000000
-0.747370 3.793240 1.034849 9.500000
-0.603904 3.799553 1.020503 40.000000
3.702634 3.791848 1.023561 62.000000
3.719902 3.776814 1.022037 72.000000
4.112416 3.795349 1.027221 65.000000
4.142827 3.788868 1.032208 67.500000
4.175678 3.793872 1.040905 66.000000
5.330866 3.775702 1.019209 1.000000
5.363565 3.783929 1.027454 1.000000
-0.711364 3.823584 1.039255 8.666667
3.631500 3.817281 1.023863 78.500000
3.649579 3.809727 1.022993 76.000000
3.681416 3.814626 1.028466 79.250000
3.717068 3.817942 1.035355 82.750000
3.755618 3.820210 1.041116 88.750000
-0.687783 3.833053 1.039278 8.000000
-0.667944 3.838005 1.038481 11.000000
-0.592067 3.830836 1.028174 100.000000
2.339007 3.846563 1.036834 77.750000
2.393013 3.835861 1.040432 76.500000
3.625967 3.825606 1.020431 76.000000
3.655003 3.825965 1.025681 73.500000
2.167570 3.864225 1.021788 73.666664
2.194496 3.861343 1.023939 76.000000
2.222664 3.858357 1.026273 78.000000
2.251743 3.855184 1.028725 82.333336
2.279975 3.850330 1.030594 76.250000
2.310643 3.852685 1.035214 77.000000
2.367693 3.849957 1.041685 76.000000
1.894967 3.943301 1.020527 1.000000
-0.920072 -2.476370 1.059047 100.000000
-0.877677 -2.470041 1.049549 100.000000
-1.251996 -2.296902 1.049475 2.000000
-1.311297 -2.265401 1.055693 20.000000
-1.274162 -2.266926 1.051018 5.000000
-1.307032 -2.229720 1.053697 20.000000
-1.304130 -2.195374 1.051952 27.000000
-1.313410 -2.171076 1.052199 32.000000
-1.317944 -2.143044 1.051709 42.000000
-1.303728 -2.100193 1.048235 49.000000
-1.293956 -2.061185 1.045508 59.000000
-1.301147 -2.035784 1.045531 87.000000
-1.311360 -2.012821 1.046062 100.000000
-1.308932 -1.980119 1.044598 100.000000
-1.436615 0.050081 1.042889 4.000000
-1.427700 0.079462 1.043522 4.000000
-1.412849 0.110152 1.042858 2.000000
-1.447799 0.143185 1.054560 1.000000
-1.430129 0.126096 1.048597 3.000000
-1.436659 0.173162 1.054783 0.000000
-1.437990 0.197479 1.057510 0.000000
-1.278884 0.499780 1.042973 19.000000
-1.276052 0.533143 1.043977 11.000000
-1.257670 0.560367 1.042000 7.000000
-1.270313 0.587869 1.045531 3.000000
-1.331666 0.620074 1.057959 2.000000
-1.299785 0.610051 1.051815 1.000000
-1.337394 0.639459 1.059954 2.000000
-1.249804 2.749052 1.047503 118.000000
-1.253292 2.777599 1.052184 119.000000
-1.246801 2.805495 1.055273 104.000000
-1.244890 2.825527 1.057934 28.000000
7.904000 3.470084 1.059778 56.000000
7.957798 3.468413 1.065869 55.000000
7.970210 3.459881 1.066611 51.000000
7.758627 3.477106 1.043933 53.000000
7.803036 3.484854 1.049046 61.000000
7.851007 3.479547 1.054291 58.000000
8.006980 3.486948 1.045442 33.000000
8.065094 3.484528 1.053125 36.000000
8.121451 3.493721 1.062806 50.666668
7.721550 3.522454 1.052097 46.000000
8.318150 3.522434 1.049511 37.000000
8.378695 3.517840 1.057086 31.000000
8.443014 3.514153 1.065300 36.000000
7.676372 3.528229 1.046794 52.000000
7.792878 3.525613 1.061692 58.000000
8.106106 3.531022 1.066199 98.666664
4.161166 3.552084 1.055911 52.000000
6.533436 3.571482 1.046117 46.000000
6.568105 3.568872 1.051387 49.000000
6.602815 3.566048 1.056642 45.000000
6.635821 3.562124 1.061469 46.000000
4.138884 3.582222 1.059599 43.333332
7.505838 3.598620 1.050689 40.000000
7.551890 3.595862 1.058005 37.000000
7.596179 3.592055 1.064928 34.000000
3.988391 3.622636 1.047076 96.250000
4.031264 3.608718 1.051332 83.000000
4.055380 3.609151 1.055134 71.500000
4.088729 3.603433 1.059372 61.000000
4.107056 3.603220 1.061774 57.000000
4.134271 3.610715 1.066467 45.000000
6.106879 3.617719 1.046944 53.000000
6.136720 3.613027 1.051014 50.000000
6.180287 3.615810 1.058189 50.000000
6.208025 3.610590 1.061878 48.000000
6.241403 3.607218 1.066693 52.000000
6.651923 3.619865 1.041921 45.000000
6.690122 3.618256 1.047831 48.000000
6.730566 3.616411 1.054076 49.000000
6.765784 3.611755 1.059033 46.000000
6.811606 3.611963 1.066502 48.000000
7.468862 3.604945 1.045256 40.000000
3.956156 3.637128 1.044286 99.875000
3.905368 3.674217 1.042153 109.000000
3.931634 3.670406 1.045116 111.500000
4.049731 3.655306 1.049174 20.000000
6.346059 3.660295 1.042853 44.000000
6.374355 3.657656 1.047906 45.000000
6.401384 3.653177 1.052478 42.000000
6.433573 3.651326 1.058401 42.000000
6.467516 3.650200 1.064767 44.000000
3.888510 3.694101 1.042296 106.000000
4.597836 3.682401 1.042655 10.000000
4.631639 3.687299 1.050274 10.000000
4.651907 3.688228 1.054387 10.000000
4.682809 3.680530 1.058569 10.000000
4.718176 3.676242 1.064442 10.000000
4.984918 3.689498 1.047649 8.000000
5.030437 3.686301 1.055132 8.000000
5.067336 3.684487 1.061346 8.000000
5.459249 3.690985 1.055476 1.000000
5.498090 3.690337 1.062391 1.000000
5.527952 3.682032 1.066274 1.000000
3.884406 3.718510 1.045252 103.000000
5.375364 3.712817 1.044497 1.000000
5.401195 3.713954 1.049345 1.000000
5.433792 3.718899 1.056140 1.000000
5.461304 3.720858 1.061465 1.000000
5.545499 3.714778 1.056958 1.000000
5.582786 3.712287 1.061653 1.000000
5.620436 3.709109 1.066348 1.000000
6.067485 3.708116 1.048340 4.000000
3.869918 3.740349 1.045772 97.750000
4.648818 3.744524 1.051549 10.000000
4.675955 3.741633 1.056091 10.000000
4.715159 3.748047 1.065292 10.000000
4.891377 3.746469 1.061518 10.000000
5.523634 3.742383 1.055863 1.000000
5.552167 3.742088 1.060966 1.000000
6.034948 3.741673 1.048885 4.250000
6.058152 3.730072 1.052213 2.000000
3.844654 3.757274 1.044674 74.250000
4.593780 3.750661 1.042482 11.000000
4.624834 3.750876 1.048500 10.000000
4.799182 3.752056 1.041924 10.250000
4.830812 3.752254 1.049068 10.000000
4.864238 3.756657 1.057554 10.500000
5.427375 3.770608 1.044297 1.000000
5.442621 3.762764 1.045422 1.000000
5.476924 3.768076 1.052660 1.000000
5.503851 3.765785 1.055391 1.000000
5.545473 3.771676 1.064666 1.000000
6.335805 3.761194 1.047921 68.000000
6.365596 3.760164 1.055831 69.333336
6.393395 3.757453 1.062772 66.000000
6.695757 3.762492 1.042029 52.000000
6.745584 3.768097 1.055803 48.000000
6.782542 3.760369 1.063318 47.666668
7.168615 3.763480 1.042286 37.500000
7.202241 3.760895 1.049278 41.000000
7.226433 3.759806 1.054471 37.000000
7.268883 3.760709 1.064158 37.500000
7.814757 3.772403 1.050226 32.000000
7.837701 3.767873 1.053876 31.000000
7.857031 3.761801 1.056564 28.000000
7.905652 3.766120 1.066739 28.000000
4.191139 3.786110 1.042292 65.000000
5.463010 3.787185 1.048758 1.000000
3.784809 3.806006 1.043344 82.000000
3.814107 3.812623 1.048007 85.000000
3.840623 3.801377 1.050256 76.000000
5.516969 3.800405 1.062381 1.000000
2.448077 3.834229 1.047398 75.000000
2.476860 3.844109 1.054624 75.750000
2.496125 3.827173 1.051855 75.000000
2.516508 3.837770 1.058203 79.000000
2.552007 3.839523 1.063926 74.750000
2.428514 3.851381 1.050297 76.500000
-0.597779 3.879020 1.042634 74.000000
-0.573937 3.921168 1.052328 21.000000
-0.533051 3.943128 1.054562 13.000000
-0.510746 3.961600 1.057750 12.500000
-0.485326 3.968721 1.057364 12.500000
-0.460436 3.976434 1.057250 13.000000
-0.448164 3.989680 1.060003 12.000000
-0.419758 3.980123 1.054520 13.000000
-0.410963 4.001127 1.059947 12.000000
-0.399769 4.005607 1.060260 8.000000
-1.035175 -2.478513 1.085067 100.000000
-1.004583 -2.486018 1.078070 100.000000
-0.968279 -2.487925 1.069845 99.000000
-1.353255 2.871922 1.081385 0.000000
8.325138 3.416330 1.090899 20.000000
8.159840 3.448180 1.087576 53.000000
8.017243 3.461068 1.072207 65.000000
8.042418 3.457925 1.074660 55.000000
8.073083 3.451789 1.078056 57.000000
8.112883 3.454729 1.082465 57.000000
8.295871 3.471514 1.083338 37.000000
8.348282 3.466347 1.089969 33.000000
8.189918 3.484164 1.070215 31.000000
8.235258 3.475851 1.075493 37.000000
7.838604 3.518087 1.066907 57.000000
7.891260 3.514287 1.073399 57.000000
7.940283 3.508732 1.079251 46.000000
8.006830 3.506994 1.087772 61.000000
8.204707 3.501319 1.080773 29.000000
8.253668 3.501072 1.090401 67.000000
8.512984 3.511977 1.074488 20.000000
4.205095 3.568928 1.069603 16.000000
6.689819 3.568582 1.071250 43.000000
6.722926 3.564183 1.076045 43.000000
6.752554 3.557847 1.080001 43.000000
6.785712 3.553057 1.084769 46.000000
8.102396 3.558974 1.070081 96.000000
6.383933 3.596312 1.087781 49.000000
7.649186 3.592660 1.073763 40.000000
7.697207 3.589745 1.081414 37.000000
7.737992 3.583582 1.087538 40.000000
8.116394 3.584522 1.077069 94.500000
3.729505 3.623961 1.088310 83.000000
4.207253 3.623958 1.072732 59.000000
6.278262 3.605523 1.072275 43.000000
6.313446 3.602666 1.077455 45.000000
6.357314 3.604233 1.084566 49.000000
6.852200 3.609363 1.072683 49.000000
6.885769 3.603169 1.077160 48.000000
6.928215 3.600916 1.083721 42.000000
8.103717 3.617437 1.080066 92.666664
4.199419 3.644667 1.077925 45.333332
4.225100 3.624985 1.076793 45.000000
4.244779 3.626801 1.081478 22.000000
6.537263 3.648230 1.077923 45.000000
6.576523 3.649183 1.085617 43.000000
6.595103 3.639098 1.087877 45.000000
3.694619 3.658125 1.089753 72.000000
4.071759 3.663767 1.068777 35.000000
4.191030 3.660568 1.079815 38.000000
4.777398 3.668113 1.074168 10.000000
5.213669 3.673572 1.085592 8.000000
6.504944 3.650699 1.072029 45.000000
8.115831 3.651414 1.088133 83.000000
4.751230 3.679875 1.071730 11.000000
4.816862 3.675752 1.083682 10.000000
4.853889 3.675815 1.091028 10.000000
5.104971 3.692793 1.069354 8.000000
5.131873 3.682872 1.072518 8.500000
5.161937 3.675032 1.076598 1.000000
5.194633 3.679837 1.083197 1.000000
5.585370 3.684892 1.077284 1.000000
5.641661 3.695795 1.089605 1.000000
5.677569 3.694107 1.072828 1.000000
5.708877 3.684954 1.087543 1.000000
5.687997 3.721303 1.076139 1.000000
5.698000 3.706457 1.087859 1.000000
5.757013 3.709330 1.084281 1.000000
5.785189 3.703269 1.091564 1.000000
6.510780 3.709498 1.083015 1.500000
4.227905 3.727287 1.070070 38.000000
4.249951 3.729774 1.074742 56.000000
4.745375 3.737037 1.068498 10.000000
4.769238 3.738832 1.073617 11.000000
4.791688 3.739264 1.078139 10.000000
4.829267 3.739604 1.085645 10.250000
4.988492 3.745820 1.083556 10.000000
5.016610 3.743850 1.089610 10.000000
5.622271 3.749556 1.075192 1.000000
5.700809 3.730909 1.083993 1.000000
6.128775 3.730428 1.073423 29.000000
6.181602 3.732475 1.089953 57.000000
6.501852 3.736275 1.087398 3.250000
4.318398 3.769556 1.067029 11.500000
4.349877 3.770680 1.074660 11.500000
4.412348 3.771465 1.089555 11.500000
4.738968 3.750050 1.070429 10.000000
4.927862 3.752849 1.071173 10.000000
4.946085 3.752382 1.075230 10.000000
4.967653 3.753829 1.080467 10.000000
5.593613 3.750228 1.070119 1.000000
5.657816 3.763971 1.085020 1.000000
5.686121 3.756477 1.089759 1.000000
6.421929 3.765559 1.072794 56.000000
6.451228 3.763613 1.080400 31.000000
6.477623 3.753478 1.085089 11.500000
6.838144 3.762347 1.077786 53.000000
6.871413 3.763490 1.086454 59.000000
7.297447 3.754823 1.069400 38.000000
7.327012 3.755513 1.076176 35.000000
7.376586 3.758799 1.087971 32.500000
7.947341 3.766726 1.074933 27.000000
7.996114 3.770413 1.085041 28.000000
3.475884 3.776893 1.077672 70.000000
3.515485 3.784801 1.087094 74.000000
4.381756 3.781404 1.084927 11.000000
4.400584 3.784743 1.090223 11.000000
5.611526 3.778929 1.078604 1.000000
2.764795 3.823563 1.091769 66.333336
2.588061 3.835652 1.068011 74.000000
2.612526 3.830976 1.070186 72.000000
2.629983 3.832014 1.073174 73.500000
2.648896 3.836453 1.077492 74.000000
2.666949 3.829896 1.078196 72.500000
2.704966 3.828964 1.083866 70.666664
2.733034 3.824832 1.087029 67.500000
1.072317 3.881370 1.078579 81.125000
-0.413906 4.050671 1.074975 1.000000
-1.166226 -2.491202 1.114843 100.000000
-1.125351 -2.489898 1.105506 100.000000
-1.075884 -2.480289 1.094311 100.000000
4.376992 -2.032194 1.114388 14.000000
-1.433065 0.562386 1.094533 0.000000
-1.467910 0.598171 1.107202 1.000000
-1.456766 0.577273 1.102088 0.000000
-1.478631 0.618061 1.112117 0.000000
-1.459275 0.672689 1.113486 0.000000
-1.439518 0.656213 1.106663 0.000000
8.217606 3.438843 1.093672 34.500000
8.355156 3.439083 1.100487 58.000000
8.377559 3.466966 1.109397 67.500000
8.408582 3.462364 1.097833 30.000000
8.113823 3.493555 1.100456 18.000000
8.390388 3.492557 1.116054 52.000000
8.526641 3.478211 1.115927 18.000000
8.066071 3.501985 1.095027 52.000000
8.308516 3.501377 1.101288 67.000000
6.910065 3.549304 1.104758 43.000000
6.943369 3.543621 1.109466 43.000000
6.982013 3.540232 1.115394 48.000000
3.875975 3.574665 1.106390 66.000000
6.834732 3.555779 1.093237 49.000000
6.875021 3.553936 1.099623 48.000000
3.811318 3.595841 1.098102 85.000000
3.847743 3.585571 1.103142 74.000000
6.417499 3.591898 1.092537 49.000000
6.449358 3.586371 1.096894 48.000000
6.492971 3.587852 1.103987 42.000000
6.533626 3.586391 1.110256 46.000000
6.570839 3.582894 1.115737 43.000000
7.055415 3.593486 1.103341 51.000000
7.096273 3.589373 1.109394 51.000000
7.776979 3.576432 1.093271 37.000000
7.836079 3.576976 1.103146 37.000000
7.897083 3.577847 1.113380 35.000000
3.787388 3.610563 1.096777 91.000000
4.374657 3.616014 1.102998 44.500000
6.977808 3.601687 1.091938 54.000000
7.021703 3.600614 1.098943 54.000000
3.757239 3.627856 1.094868 95.000000
4.350915 3.634587 1.101755 101.750000
5.741575 3.628263 1.095775 1.000000
5.785858 3.638599 1.105883 2.000000
5.842439 3.637068 1.116181 54.000000
5.930393 3.649034 1.102450 1.000000
5.962122 3.644611 1.106569 1.000000
5.995600 3.637114 1.110482 32.000000
6.630575 3.638625 1.094671 43.000000
6.671296 3.640606 1.102811 49.000000
6.708609 3.640575 1.110037 45.000000
3.726092 3.657563 1.095900 77.666664
4.339869 3.663777 1.103755 104.000000
4.901047 3.666917 1.098408 10.000000
4.944305 3.667982 1.107313 10.000000
4.979275 3.660749 1.112743 10.000000
5.732018 3.670390 1.101617 1.000000
5.752922 3.656681 1.103010 1.000000
5.917998 3.667337 1.102602 1.000000
4.192519 3.677200 1.096734 32.000000
5.261252 3.677511 1.094737 2.500000
5.327603 3.695145 1.109447 1.000000
5.673060 3.677730 1.092063 1.000000
5.792777 3.681662 1.093073 1.000000
5.910359 3.696391 1.103904 1.000000
8.111970 3.679330 1.092081 80.333336
4.140792 3.707805 1.094845 69.000000
4.172837 3.709432 1.101709 88.000000
4.197209 3.709577 1.106657 72.000000
4.232621 3.719950 1.105574 27.000000
4.378119 3.719682 1.097119 9.000000
4.407452 3.718105 1.102452 9.000000
4.431203 3.711069 1.105629 10.000000
4.469404 3.718026 1.114435 9.500000
5.826178 3.708304 1.103174 25.000000
5.861245 3.703917 1.110104 9.000000
5.875374 3.703813 1.099834 1.000000
8.104174 3.706216 1.095105 90.000000
4.304048 3.732638 1.106910 47.000000
4.872096 3.733583 1.092688 10.000000
4.912013 3.738096 1.101734 10.000000
4.949466 3.730414 1.107401 10.000000
4.981144 3.727992 1.113198 10.000000
5.000480 3.725436 1.116495 10.000000
5.049692 3.746185 1.097737 10.000000
5.081280 3.738240 1.103406 10.000000
5.114766 3.739739 1.111507 10.000000
5.748186 3.725871 1.096233 1.000000
5.787059 3.727630 1.103174 3.333333
6.213747 3.730148 1.099009 56.666668
6.234358 3.725072 1.103786 53.000000
6.254477 3.728833 1.111030 52.000000
6.273358 3.726385 1.116091 54.000000
6.577763 3.728017 1.106609 16.500000
6.607041 3.728891 1.115098 41.000000
8.125168 3.736058 1.104277 59.500000
4.170999 3.766842 1.106481 53.000000
4.441839 3.768653 1.095826 11.000000
4.474415 3.769196 1.103740 9.000000
4.499297 3.761206 1.107669 11.000000
4.531630 3.760227 1.115225 11.000000
5.727111 3.752400 1.096057 1.000000
6.899159 3.760729 1.092859 65.000000
6.930322 3.759493 1.100489 60.000000
6.965737 3.766109 1.110973 56.000000
6.988472 3.760193 1.115441 39.500000
7.428959 3.755913 1.099206 32.500000
7.466940 3.751729 1.106964 31.000000
8.075458 3.762547 1.099117 66.000000
8.102037 3.750403 1.102213 81.000000
3.539649 3.786033 1.091952 73.500000
3.567532 3.778428 1.095286 72.000000
3.605354 3.782200 1.103451 61.000000
3.617604 3.777670 1.104650 16.000000
4.201117 3.780218 1.116536 71.000000
8.052254 3.776478 1.096996 50.000000
2.799802 3.811828 1.093820 65.500000
2.826219 3.817005 1.099846 70.000000
2.846069 3.807398 1.100179 66.000000
2.877623 3.808610 1.105936 67.500000
2.903862 3.811237 1.111269 79.000000
1.108817 3.941230 1.096727 82.000000
1.068579 3.955328 1.097502 80.000000
1.138453 3.993073 1.112253 80.500000
1.068291 4.008410 1.111214 81.500000
0.808830 4.030275 1.101110 43.000000
0.838697 4.035122 1.104098 73.500000
0.861245 4.032065 1.104264 85.750000
0.896157 4.044826 1.109677 84.125000
0.929039 4.045497 1.111959 83.875000
0.958857 4.042248 1.112680 81.750000
0.986501 4.039022 1.113851 83.000000
1.022909 4.034173 1.114835 80.500000
1.052278 4.033103 1.116518 79.750000
-1.246718 -2.491818 1.133324 100.000000
-1.215910 -2.500279 1.126143 100.000000
4.451911 -2.058958 1.132404 38.000000
4.470449 -2.057580 1.136444 47.000000
4.463802 -2.029763 1.132210 47.166664
4.487418 -2.001208 1.134637 47.500000
4.469197 -1.992619 1.129704 48.000000
4.470235 -1.963779 1.127367 48.666668
4.473837 -1.934392 1.125415 48.000000
4.493001 -1.928488 1.128804 47.000000
4.487403 -1.905606 1.125743 47.500000
4.484561 -1.866460 1.121535 47.875000
4.560248 -1.863789 1.137353 22.000000
4.525420 -1.848513 1.128775 29.000000
4.532716 -1.817547 1.127455 101.000000
-1.514083 0.676703 1.127679 0.000000
8.476442 3.439334 1.124581 28.000000
8.416027 3.515696 1.124863 60.000000
7.025591 3.539970 1.122591 54.000000
7.076764 3.541828 1.131358 51.000000
7.122675 3.540919 1.138873 46.000000
3.949836 3.572212 1.121306 29.000000
7.988145 3.566446 1.127384 35.000000
8.034642 3.560656 1.134552 32.000000
3.924854 3.577402 1.117278 57.500000
6.016644 3.589556 1.140682 14.000000
6.237863 3.596153 1.140311 37.000000
6.611593 3.580936 1.121979 48.000000
6.645377 3.575216 1.126661 46.000000
6.691495 3.575392 1.134034 45.000000
6.737679 3.575278 1.141391 42.000000
7.149673 3.590586 1.118349 45.000000
7.188841 3.585130 1.123938 48.000000
7.237000 3.583353 1.131589 51.000000
7.276246 3.577374 1.137133 55.000000
7.949008 3.574774 1.121709 37.000000
5.876580 3.619853 1.119524 55.000000
5.910132 3.621296 1.126091 52.000000
5.937132 3.618485 1.130684 54.000000
6.147134 3.612602 1.129105 75.500000
6.206635 3.618490 1.137711 59.500000
5.866085 3.632624 1.119820 52.000000
6.049148 3.640560 1.122274 41.750000
6.094598 3.624778 1.122923 71.000000
6.748124 3.640392 1.117680 42.000000
6.775491 3.633873 1.122154 39.000000
6.809857 3.630643 1.128424 42.000000
6.842508 3.626348 1.134233 45.000000
5.007588 3.656750 1.117583 10.000000
5.040435 3.665167 1.126107 10.000000
5.055398 3.659030 1.127800 10.000000
5.071860 3.654011 1.130055 10.000000
5.095415 3.655392 1.135173 10.000000
4.339549 3.692091 1.131071 12.000000
4.377025 3.690632 1.138525 12.000000
5.938940 3.698887 1.129520 54.250000
5.948721 3.677388 1.121273 55.000000
5.997815 3.686262 1.132166 54.000000
6.026975 3.683084 1.137027 54.000000
4.503015 3.718444 1.121062 10.000000
4.525604 3.713838 1.131308 11.500000
4.548870 3.702154 1.126810 9.000000
4.581194 3.712213 1.135151 10.000000
5.060390 3.724142 1.128338 10.500000
5.089013 3.718819 1.132919 10.000000
5.113516 3.718585 1.137872 10.000000
5.177126 3.720531 1.122166 10.000000
5.479441 3.709013 1.139024 1.000000
5.867505 3.706907 1.121423 49.000000
5.910573 3.704829 1.124766 54.500000
6.293992 3.719786 1.120505 54.500000
7.059770 3.706596 1.121883 1.000000
7.100732 3.714136 1.134064 2.000000
4.544130 3.725072 1.141656 12.000000
5.032388 3.731590 1.124408 10.000000
5.158846 3.736336 1.121110 10.000000
5.219659 3.737659 1.135664 1.000000
5.418182 3.728834 1.131079 1.000000
5.464840 3.730082 1.139691 1.000000
6.336149 3.727293 1.135660 57.500000
6.634457 3.734435 1.124258 50.000000
6.661467 3.733387 1.131650 49.000000
6.691163 3.727727 1.138669 47.500000
7.073701 3.731420 1.130887 2.000000
4.255497 3.770972 1.125050 75.000000
4.363164 3.757316 1.118740 78.000000
4.406833 3.762290 1.125984 83.666672
4.562058 3.756919 1.121775 11.000000
4.595922 3.756615 1.129965 11.000000
4.630567 3.756624 1.138473 11.000000
7.021867 3.754346 1.122663 16.000000
7.510905 3.757354 1.117991 32.000000
7.540529 3.757244 1.124672 31.000000
7.579843 3.754210 1.132992 32.000000
2.978636 3.798811 1.120561 77.000000
3.091627 3.796911 1.140563 79.500000
4.231139 3.783346 1.123608 77.500000
2.941214 3.811097 1.117737 77.666672
3.003938 3.808719 1.128140 80.000000
3.028585 3.801649 1.130428 77.000000
3.057137 3.800834 1.135388 76.000000
1.338501 3.986737 1.126631 99.666664
1.349971 3.984482 1.126614 100.000000
1.409400 3.996280 1.135126 82.000000
1.434928 3.994373 1.136938 82.500000
1.466151 3.995134 1.140091 83.666664
1.473432 3.981740 1.136976 81.000000
1.497676 3.986929 1.140867 81.750000
1.178232 4.010204 1.119388 82.125000
1.198194 4.017567 1.123200 82.250000
1.227631 4.012043 1.123902 80.000000
1.259340 4.007944 1.125371 81.500000
1.288790 4.005677 1.127183 87.333336
1.318597 4.003085 1.128997 89.000000
1.377804 4.002344 1.133873 81.000000
1.177130 4.025471 1.123792 82.000000
-1.330983 -2.496557 1.152725 100.000000
-1.283977 -2.490848 1.141928 100.000000
-1.344189 -2.471815 1.156116 100.000000
-1.343989 -2.435278 1.156582 100.000000
-1.342131 -2.397501 1.156705 100.000000
-1.338601 -2.358500 1.156481 100.000000
-1.355752 -2.337670 1.160837 100.000000
-1.359371 -2.305202 1.162234 100.000000
-1.350845 -2.262514 1.160975 100.000000
-1.347281 -2.226090 1.160798 100.000000
-1.351916 -2.195057 1.162484 100.000000
-1.353386 -2.161520 1.163492 100.000000
-1.359244 -2.131814 1.165493 100.000000
-1.353806 -2.058696 1.165764 100.000000
-1.354642 -2.025360 1.166717 100.000000
3.876779 -1.926980 1.160027 55.000000
3.815252 -1.908265 1.143129 48.500000
3.874231 -1.913299 1.157884 14.500000
3.904583 -1.915829 1.165580 3.000000
-1.598508 0.670584 1.148147 0.000000
-1.361181 1.880097 1.161553 1.000000
-1.327209 1.902663 1.157567 1.000000
-1.263334 1.937134 1.149255 4.000000
-1.267971 1.965575 1.153256 11.000000
-1.280736 1.982871 1.157589 18.000000
-1.269889 2.001927 1.157672 20.000000
-1.257414 2.030100 1.158501 23.000000
-1.256674 2.059351 1.161706 37.000000
-1.255422 2.078555 1.163690 45.000000
8.342884 2.815649 1.152779 6.000000
8.319786 2.841650 1.151114 18.500000
8.331188 2.871413 1.158252 21.500000
8.316453 2.897772 1.158694 21.000000
8.317079 2.918876 1.162024 23.000000
8.326355 2.934385 1.166578 26.000000
8.307642 2.952555 1.164897 21.000000
7.156163 3.534063 1.143502 46.000000
7.189668 3.527001 1.148118 46.000000
7.250026 3.531666 1.158850 51.000000
7.290775 3.527256 1.165065 49.000000
6.776873 3.571431 1.147190 40.000000
6.813877 3.567425 1.152629 42.000000
6.865539 3.569039 1.161096 43.000000
7.311489 3.570580 1.141903 51.000000
7.363382 3.569507 1.150314 48.000000
7.427962 3.573420 1.161600 58.000000
8.088530 3.557324 1.143211 38.000000
8.136944 3.551593 1.150724 21.000000
6.092184 3.595835 1.156152 62.000000
6.128996 3.587134 1.161687 62.500000
6.272238 3.595741 1.144721 71.000000
6.299603 3.591773 1.148542 68.000000
6.335369 3.592748 1.153360 69.500000
6.376334 3.596518 1.159120 67.000000
6.404071 3.587540 1.162437 67.000000
6.018898 3.619238 1.146279 71.000000
6.067134 3.599823 1.152067 59.000000
6.961740 3.622308 1.157001 45.000000
6.996301 3.617960 1.163218 39.000000
5.987368 3.629606 1.142124 59.000000
6.110229 3.649567 1.146351 44.000000
6.144542 3.648493 1.152643 66.000000
6.175519 3.645324 1.157922 70.000000
6.207778 3.643687 1.163743 70.000000
6.899729 3.633765 1.146339 45.000000
6.928968 3.627285 1.151224 42.000000
5.133560 3.658408 1.143655 10.000000
5.169218 3.658230 1.150954 10.000000
5.194837 3.650445 1.154564 9.500000
5.244099 3.651090 1.164922 1.000000
6.022878 3.674261 1.150056 36.000000
6.049383 3.671651 1.155465 58.000000
6.078946 3.671620 1.153320 44.500000
4.417520 3.692569 1.147582 11.500000
4.450022 3.680818 1.151344 11.666667
4.482163 3.678419 1.157577 12.000000
4.524734 3.675311 1.165932 11.000000
4.741695 3.694348 1.163560 9.000000
5.274755 3.696316 1.166016 1.500000
5.992003 3.683779 1.144814 26.500000
6.072917 3.689456 1.146874 116.000000
4.652988 3.706310 1.148187 9.000000
4.688055 3.706950 1.155282 9.000000
4.704158 3.723597 1.165710 77.000000
4.718100 3.708529 1.163795 37.500000
5.154953 3.721395 1.147023 10.000000
5.188035 3.708166 1.150764 10.000000
5.228447 3.710316 1.159612 10.000000
5.253174 3.709275 1.164498 10.000000
5.535673 3.706091 1.148768 1.000000
5.975913 3.702209 1.144266 106.000000
6.366111 3.721401 1.143230 56.000000
6.380382 3.720187 1.147309 56.000000
6.769297 3.720670 1.159223 49.000000
4.383641 3.744266 1.144313 11.000000
4.405189 3.746761 1.149612 9.000000
4.430785 3.743750 1.154241 10.000000
4.484168 3.739111 1.164441 9.000000
4.576411 3.732430 1.147907 12.000000
4.616858 3.731330 1.150592 10.833333
4.653516 3.742543 1.154170 11.000000
4.682020 3.742650 1.160758 14.250000
4.734732 3.745378 1.161557 9.000000
5.249246 3.743377 1.143804 1.000000
6.358278 3.726233 1.142191 56.000000
6.412720 3.725167 1.158780 55.500000
6.724966 3.729599 1.148767 47.000000
6.753570 3.729049 1.156798 48.500000
7.170103 3.728555 1.155069 20.000000
7.736423 3.741493 1.166146 31.000000
4.471520 3.754829 1.166111 11.000000
4.691146 3.755443 1.153162 11.000000
4.715693 3.754421 1.159022 11.500000
5.287958 3.755954 1.155499 1.000000
7.623030 3.751729 1.142309 32.000000
7.653053 3.750318 1.148857 32.000000
7.688466 3.750874 1.157013 37.000000
7.725973 3.751315 1.165631 37.000000
3.126078 3.799219 1.147700 76.750000
3.157387 3.790507 1.150981 76.500000
3.179142 3.792788 1.155815 75.000000
3.207160 3.799384 1.163180 71.750000
1.828237 3.944250 1.164564 95.000000
1.714062 3.967029 1.157528 68.166664
1.742279 3.967286 1.160870 71.000000
1.768246 3.963407 1.162427 70.166664
1.526032 3.988916 1.144137 81.375000
1.559430 3.990347 1.147565 83.125000
1.585195 3.986764 1.149282 80.000000
1.604087 3.982423 1.150189 82.333328
1.631353 3.978239 1.151482 81.000000
1.648605 3.985163 1.155432 80.250000
1.678850 3.976506 1.156209 74.750000
-1.363454 -2.100867 1.167150 100.000000
-1.356854 -1.993315 1.167996 100.000000
-1.357385 -1.960078 1.168922 100.000000
-1.362379 -1.930580 1.170859 100.000000
-1.363376 -1.899697 1.171888 100.000000
-1.363464 -1.866594 1.172777 100.000000
-1.358743 -1.829903 1.172617 100.000000
-1.372515 -1.807798 1.176588 100.000000
-1.369046 -1.772418 1.176746 100.000000
-1.360721 -1.733523 1.175841 100.000000
-1.367877 -1.706659 1.178403 100.000000
-1.374921 -1.679797 1.180961 100.000000
-1.372402 -1.645849 1.181407 100.000000
-1.374460 -1.615501 1.182893 100.000000
-1.368469 -1.579335 1.182600 100.000000
-1.374996 -1.552580 1.185124 100.000000
-1.370280 -1.517716 1.185151 100.000000
-1.384529 -1.496778 1.189445 100.000000
-1.382911 -1.467554 1.190091 100.000000
-1.368164 -1.425992 1.187921 100.000000
-1.374072 -1.399375 1.190402 100.000000
-1.264215 2.106773 1.168652 61.500000
-1.256396 2.145400 1.171745 75.500000
-1.262064 2.183387 1.177387 83.000000
-1.262463 2.212035 1.180953 84.000000
-1.254832 2.240911 1.183069 84.000000
-1.258861 2.269439 1.187388 86.000000
-1.261743 2.297060 1.191420 76.500000
8.306738 2.988145 1.170139 23.333334
8.302363 3.016113 1.173420 26.000000
8.282623 3.047669 1.173657 24.000000
8.296082 3.028734 1.173891 26.000000
8.287438 3.088070 1.181153 24.000000
7.329765 3.521811 1.170854 46.000000
7.370584 3.516896 1.177034 45.000000
7.415036 3.513272 1.184012 46.000000
6.538359 3.573340 1.179964 69.000000
6.573099 3.567419 1.184522 72.000000
6.594483 3.569344 1.187299 67.000000
6.913732 3.568641 1.168777 40.000000
6.947783 3.561253 1.173363 40.000000
6.990746 3.557806 1.179859 40.000000
7.040883 3.557377 1.187876 42.000000
7.467368 3.566357 1.167052 55.000000
7.508605 3.559794 1.172895 54.000000
7.549871 3.552974 1.178717 51.000000
7.605670 3.551781 1.187819 54.000000
4.141819 3.592251 1.167086 44.500000
4.166524 3.579313 1.169467 58.000000
4.196226 3.580174 1.176148 40.000000
6.172581 3.581980 1.169151 61.000000
6.211664 3.584289 1.177047 64.000000
6.255896 3.589200 1.186387 57.000000
6.445910 3.581477 1.167758 67.000000
6.478851 3.575047 1.172007 71.000000
6.500177 3.577190 1.174776 67.000000
4.238667 3.602046 1.190454 13.000000
7.045009 3.620012 1.173022 45.000000
7.084953 3.617648 1.180564 46.000000
7.126718 3.615843 1.188545 48.000000
4.164884 3.642097 1.183631 18.000000
5.756277 3.642635 1.179456 1.000000
5.821995 3.642170 1.191545 25.000000
6.233732 3.637356 1.167500 64.000000
6.276272 3.640920 1.176269 61.000000
6.310812 3.638829 1.182476 68.000000
6.343688 3.635617 1.188169 68.000000
4.568159 3.672369 1.174577 11.000000
4.644348 3.672351 1.191275 11.000000
5.299840 3.665077 1.179524 1.000000
5.742483 3.664410 1.180208 1.000000
6.107469 3.668912 1.167827 55.000000
6.149682 3.666002 1.176695 53.500000
6.188631 3.660809 1.184504 53.000000
6.204866 3.652172 1.186756 52.000000
4.592319 3.677393 1.181165 11.000000
4.623151 3.679495 1.188468 10.500000
4.770178 3.699345 1.170237 9.000000
4.856481 3.693406 1.185931 30.375000
5.723270 3.694321 1.181228 1.000000
4.800929 3.713632 1.179122 41.500000
4.828586 3.702807 1.182337 35.875000
5.635937 3.720928 1.169327 1.000000
5.668475 3.721184 1.175309 1.000000
5.708961 3.716293 1.181967 1.000000
5.772372 3.704357 1.191785 1.000000
6.453782 3.721918 1.170671 54.000000
6.490153 3.720400 1.181634 51.000000
6.527553 3.713526 1.191482 49.250000
6.795739 3.723613 1.167528 52.000000
7.869433 3.701228 1.188979 1.000000
4.528923 3.744315 1.175608 11.500000
4.559196 3.735709 1.179831 45.500000
4.589955 3.726308 1.183993 65.500000
4.747545 3.730381 1.168146 35.500000
4.780018 3.738836 1.174564 27.000000
4.821693 3.736362 1.181298 10.000000
5.642384 3.746276 1.174427 1.000000
6.834434 3.727690 1.179641 53.000000
7.226704 3.730002 1.169996 45.000000
7.265382 3.728844 1.179754 47.000000
7.309599 3.729101 1.191270 50.500000
7.789630 3.749046 1.179704 18.000000
7.819592 3.747220 1.186195 11.000000
3.358573 3.767298 1.183591 75.000000
5.326797 3.768289 1.167186 1.000000
3.239893 3.790684 1.166920 71.000000
3.268897 3.788460 1.171941 70.000000
3.294903 3.780115 1.174600 71.000000
3.319619 3.785330 1.181067 72.500000
3.343177 3.777630 1.183520 74.000000
5.372720 3.777609 1.179967 1.000000
2.072018 3.847993 1.170750 74.916664
2.104023 3.833722 1.171485 62.000000
3.313316 3.845652 1.171359 50.000000
3.320443 3.830702 1.170104 63.500000
3.352044 3.840669 1.176628 76.000000
3.384774 3.845775 1.182635 87.500000
3.417083 3.844298 1.187045 86.500000
3.453943 3.832890 1.190760 84.500000
2.144505 3.867203 1.184874 35.000000
1.960601 3.911817 1.172450 52.000000
1.985936 3.917037 1.176354 57.666668
2.020191 3.923510 1.182173 67.000000
2.049326 3.921107 1.185123 88.875000
2.074815 3.928800 1.190197 75.000000
1.808241 3.965735 1.167634 86.500000
1.860130 3.953516 1.170432 81.666664
1.890092 3.953562 1.173883 79.250000
1.919580 3.951603 1.176944 80.000000
1.954269 3.952891 1.181345 80.833328
-1.378261 -1.371630 1.192517 100.000000
-1.382329 -1.343907 1.194625 100.000000
-1.387897 -1.317323 1.197090 100.000000
-1.389630 -1.256474 1.200023 100.000000
-1.372974 -1.275199 1.195019 100.000000
-1.389295 -1.227687 1.201151 100.000000
-1.396988 -1.204441 1.204109 100.000000
-1.382383 -1.164823 1.202108 100.000000
-1.387224 -1.138408 1.204521 100.000000
-1.377194 -1.102264 1.203583 100.000000
-1.391648 -1.082381 1.208213 100.000000
-1.394504 -1.054948 1.210233 100.000000
-1.388992 -1.022212 1.210369 100.000000
-1.380021 -0.987439 1.209733 100.000000
-1.385803 -0.962257 1.212471 100.000000
-1.393145 -0.938124 1.215583 100.000000
-1.256631 2.325775 1.194108 71.000000
-1.256257 2.354860 1.197788 51.000000
-1.259674 2.383949 1.202224 46.000000
-1.274745 2.411644 1.208733 24.000000
-1.266753 2.449860 1.212311 17.000000
7.471731 3.515678 1.193878 51.000000
7.523089 3.515462 1.202501 54.000000
7.567703 3.510934 1.209418 48.000000
7.608734 3.504635 1.215505 49.000000
7.168412 3.543725 1.206837 37.000000
7.224154 3.544491 1.215936 40.000000
7.758896 3.540311 1.211651 51.000000
6.334649 3.572482 1.198765 64.000000
6.372739 3.571990 1.206058 66.000000
6.412598 3.572166 1.213819 68.000000
6.638834 3.568296 1.193578 66.000000
6.683496 3.562298 1.199368 68.000000
6.717724 3.556852 1.203920 67.000000
6.743925 3.557947 1.207335 70.000000
6.785193 3.555893 1.213139 70.000000
7.078593 3.550914 1.193188 43.000000
7.128841 3.549894 1.201172 40.000000
7.666985 3.552414 1.198127 58.000000
7.724746 3.551206 1.207578 57.000000
6.293117 3.580830 1.192146 55.500000
7.154340 3.607312 1.192919 43.000000
7.203286 3.608232 1.202672 40.000000
7.244778 3.606547 1.210645 42.000000
5.859122 3.632055 1.196916 37.000000
5.900271 3.635642 1.205100 39.000000
5.941502 3.638970 1.213271 43.000000
6.374889 3.631296 1.193351 73.000000
6.404851 3.625074 1.197958 73.000000
6.449856 3.627543 1.207060 68.000000
6.494493 3.630563 1.216204 61.000000
4.675336 3.673990 1.198548 11.000000
4.709664 3.664886 1.203835 16.750000
4.749969 3.661578 1.211997 42.000000
4.771265 3.653552 1.214743 57.500000
6.253377 3.660901 1.198894 66.000000
6.285606 3.659091 1.205786 57.000000
6.334464 3.657175 1.216387 55.000000
4.920788 3.697623 1.198490 29.000000
4.951490 3.677424 1.202832 9.000000
4.990321 3.677808 1.210858 9.000000
5.012568 3.695168 1.210249 57.000000
5.352074 3.685102 1.194704 1.000000
5.369966 3.680488 1.197470 1.000000
5.403846 3.686446 1.205843 1.000000
5.434244 3.690573 1.213108 1.000000
5.452683 3.684973 1.215816 1.000000
4.167264 3.720176 1.202370 56.000000
4.674957 3.720107 1.201142 70.000000
4.704833 3.717879 1.207219 65.500000
4.901577 3.715615 1.195110 47.000000
4.952382 3.703766 1.201851 72.000000
4.981976 3.700200 1.206050 64.000000
6.565654 3.717292 1.204549 48.000000
6.603117 3.717775 1.216545 51.666668
6.901850 3.722445 1.197783 52.000000
6.926647 3.724065 1.205341 51.000000
7.339491 3.723856 1.197913 50.000000
4.210241 3.735437 1.215143 82.500000
4.630949 3.734819 1.195382 52.000000
4.648765 3.732138 1.198596 54.000000
4.672294 3.734334 1.204425 70.000000
4.861111 3.742098 1.192706 11.000000
4.896542 3.747823 1.203132 9.000000
4.921752 3.745025 1.208926 11.000000
5.377648 3.740623 1.197586 1.000000
5.408457 3.743879 1.204771 1.000000
5.473776 3.731796 1.215764 1.000000
6.877670 3.727352 1.192002 54.000000
6.963097 3.725768 1.216302 49.500000
7.372391 3.725437 1.206801 51.000000
7.409091 3.727774 1.216846 47.000000
7.853436 3.745969 1.193687 6.000000
7.869311 3.737673 1.195758 3.000000
7.898052 3.733390 1.201531 1.000000
3.417253 3.764719 1.194825 70.000000
3.486110 3.773695 1.211717 70.000000
3.510393 3.765418 1.214427 71.000000
5.469875 3.769609 1.201594 1.000000
3.387206 3.777447 1.192385 73.500000
3.457495 3.775596 1.206304 73.500000
5.419262 3.785969 1.192725 1.000000
5.459869 3.789307 1.203095 1.000000
5.513260 3.775240 1.213137 1.000000
3.571144 3.818878 1.207087 80.000000
3.451357 3.849301 1.193590 88.000000
3.483388 3.830880 1.195390 88.000000
3.510249 3.835070 1.199874 87.000000
3.543971 3.827306 1.203968 80.500000
3.600690 3.826918 1.212702 81.500000
2.164195 3.899907 1.194498 42.000000
2.190181 3.916671 1.202109 64.500000
2.225368 3.924196 1.208493 68.333336
2.253990 3.932719 1.214274 20.000000
-1.398729 -0.912941 1.218315 100.000000
-1.395874 -0.882579 1.219138 100.000000
-1.394554 -0.853310 1.220328 100.000000
-1.399210 -0.829242 1.222827 100.000000
-1.406040 -0.805149 1.225918 100.000000
-1.416136 -0.783078 1.229778 100.000000
-1.412682 -0.752914 1.230548 100.000000
-1.395601 -0.714798 1.228198 100.000000
-1.390168 -0.683812 1.228538 100.000000
-1.393060 -0.657858 1.230810 100.000000
-1.404329 -0.636845 1.235034 100.000000
-1.408726 -0.611877 1.237692 100.000000
-1.397698 -0.578165 1.236801 100.000000
-1.397910 -0.552384 1.238439 100.000000
-1.401979 -0.527508 1.241071 100.000000
-1.571936 1.348813 1.227697 0.000000
-1.576322 1.370429 1.231838 0.000000
-1.550232 1.399364 1.229157 0.000000
-1.504806 1.431538 1.221956 0.000000
-1.485880 1.457182 1.220696 0.000000
-1.489900 1.478500 1.224773 0.000000
-1.484320 1.501988 1.226693 1.000000
-1.479586 1.536276 1.230415 3.000000
-1.482318 1.568849 1.235860 5.000000
-1.485765 1.589091 1.239720 5.000000
-1.470215 1.614392 1.239408 6.000000
-1.466037 1.637226 1.241704 9.000000
-1.278515 2.478696 1.218431 22.000000
-1.270468 2.507288 1.220805 25.000000
-1.260326 2.535756 1.222800 33.000000
-1.261848 2.563509 1.226953 49.500000
-1.257705 2.601597 1.231527 72.500000
-1.254921 2.630174 1.235066 82.000000
-1.253932 2.658806 1.238998 92.500000
7.764729 3.497267 1.240940 49.000000
7.657048 3.501033 1.223195 48.000000
7.712674 3.500055 1.232484 54.000000
6.887683 3.549312 1.227066 66.000000
6.937851 3.544573 1.233794 67.000000
6.986000 3.539241 1.240210 66.500000
7.263349 3.538787 1.221614 42.000000
