2.485117 1.882236 1.04102
2.4138479 1.936224 1.0407929
2.3743191 1.973401 1.042087
2.4059341 1.974299 1.0470541
2.450161 1.9773459 1.041893
2.459661 1.9790241 1.044125
2.474014 1.977591 1.047182
2.4018519 1.993266 1.050161
2.46052 1.997689 1.047933
2.478734 1.992012 1.049072
2.394105 2.0139551 1.053057
2.4710751 2.011977 1.054273
2.447221 2.0239041 1.051038
2.32374 2.0540509 1.0425071
2.4184401 2.059263 1.046576
2.4350281 2.0500231 1.05493
2.306545 2.0747931 1.043018
2.3198259 2.062408 1.043577
2.3092229 2.0817239 1.045617
2.3664191 2.0850019 1.050552
2.290731 2.102365 1.045758
2.3004 2.091109 1.04556
2.2838831 2.1132979 1.04669
2.2598469 2.133745 1.045213
2.268625 2.1278591 1.049521
2.2501869 2.138592 1.05312
2.2637 2.1431029 1.0488271
2.2028301 2.1561041 1.0517091
2.238642 2.162796 1.046885
2.2583461 2.1509049 1.049374
2.25351 2.170531 1.053259
2.2255111 2.1891551 1.050211
2.2101531 2.205111 1.050104
2.2254691 2.1992531 1.052936
2.211231 2.211935 1.052272
-3.0726531 2.269268 1.040567
-3.0623291 2.2713211 1.041024
-3.0873401 2.2867479 1.04119
-3.104532 2.3180201 1.042596
-3.1183989 2.335732 1.043274
-3.1312759 2.35163 1.043878
-3.16067 2.372752 1.044361
-3.1443989 2.369545 1.044606
-3.1819699 2.4055581 1.045803
-3.2046261 2.4200201 1.046122
-3.193821 2.4157219 1.046124
-3.2164941 2.434294 1.046705
-3.22875 2.4485371 1.0472879
2.1057861 2.4489441 1.0404299
2.109431 2.45995 1.044461
-3.2479651 2.4799409 1.048759
2.0623751 2.4784441 1.05156
2.0904419 2.4700511 1.0477901
2.098489 2.4663179 1.052106
2.0768371 2.4941521 1.046042
2.0888979 2.4865091 1.046878
-3.276752 2.5059979 1.049738
-3.2660661 2.4994631 1.049556
2.065675 2.50963 1.047677
2.083951 2.5037739 1.050568
2.0747089 2.5174949 1.052186
-3.2899621 2.534389 1.051185
2.064754 2.526494 1.052281
2.069468 2.5314951 1.054893
-3.671653 2.5583999 1.0515161
-3.6529951 2.5635099 1.05158
-3.3229451 2.5702729 1.052749
-3.307354 2.558224 1.052295
-3.333972 2.5789399 1.053089
-3.6397741 2.5856349 1.052705
-3.6261151 2.5978551 1.053274
-3.607748 2.6002729 1.053259
-3.3449571 2.5916679 1.053679
-3.5900879 2.6167769 1.054086
-3.567683 2.6236 1.054364
-3.3622041 2.622797 1.0552779
-3.577415 2.6392 1.055307
-3.380141 2.644927 1.041173
-3.558198 2.647423 1.047775
-3.3990829 2.652909 1.0413671
-3.53056 2.6642661 1.040899
-3.414438 2.669389 1.042141
-3.5045559 2.679879 1.041929
2.023474 2.6823249 1.040939
-3.4263289 2.6983099 1.043716
-3.48491 2.7203381 1.042061
-3.4406459 2.7079921 1.044126
1.990365 2.7109749 1.04198
-3.4639089 2.7216561 1.0447021
1.978047 2.7240169 1.043043
1.966531 2.7427239 1.045875
1.9998339 2.7364309 1.051137
1.952333 2.7538979 1.046024
1.96839 2.7555809 1.049888
1.982553 2.752095 1.051896
1.954711 2.771358 1.051448
1.927389 2.8008959 1.054024
1.87173 2.8192589 1.046144
1.9629641 2.8130169 1.0434951
1.836488 2.832561 1.047187
1.8489341 2.8291669 1.047407
1.865563 2.8316901 1.050918
1.947189 2.8278921 1.044247
1.8343149 2.85093 1.055241
1.9264489 2.843488 1.044241
1.940712 2.8526499 1.049263
1.9299901 2.8619521 1.049577
1.920476 2.881032 1.052597
1.880769 2.946769 1.04041
1.91022 2.9480979 1.04599
1.878116 2.963218 1.044264
1.88851 2.965029 1.046589
1.904732 2.9650509 1.0494781
1.866021 2.980484 1.046649
1.879514 2.983516 1.0498461
1.855513 3.001461 1.050284
1.8697751 2.9982369 1.0519789
1.824294 3.0074821 1.0406981
1.847188 3.0189021 1.0533741
1.87356 3.006057 1.054705
1.812084 3.023489 1.042816
1.832476 3.034704 1.054888
1.794037 3.0410221 1.044556
1.795606 3.0599589 1.0520279
1.511148 3.0920861 1.050395
1.51951 3.0852699 1.0501471
1.53403 3.0879159 1.0539041
1.766403 3.0855329 1.051276
1.515213 3.100904 1.05378
1.453465 3.212497 1.046775
1.770021 3.210923 1.042214
1.432457 3.2239759 1.047825
1.460858 3.222321 1.044245
1.610182 3.221633 1.050209
1.7642111 3.223671 1.044284
1.77492 3.2266159 1.04996
1.464475 3.237922 1.048311
1.483829 3.240531 1.045718
1.748214 3.239584 1.045507
1.760829 3.2396951 1.047482
1.714682 3.2593651 1.044871
1.7259901 3.2553921 1.045716
1.7471761 3.2549331 1.0489
1.472423 3.2624331 1.050752
1.617769 3.263088 1.041181
1.745353 3.2630861 1.050503
1.50694 3.282671 1.054333
1.312831 3.3798709 1.049625
1.64923 3.368155 1.054561
1.295355 3.386224 1.047999
1.307835 3.3840921 1.049776
1.321713 3.3906021 1.054024
1.54142 3.3930409 1.044517
1.597199 3.3908429 1.052511
-3.1171679 3.409755 1.042233
1.283476 3.4065199 1.050979
1.303369 3.406688 1.054729
1.492408 3.3995919 1.0411119
1.506523 3.4025099 1.04164
1.530867 3.3982351 1.044259
-3.103214 3.418525 1.043708
-3.063864 3.422349 1.045873
-3.051544 3.423178 1.046541
1.284009 3.4201801 1.0545731
1.4450001 3.4150879 1.0538009
1.478188 3.4177771 1.041688
-3.045078 3.435801 1.048151
1.485571 3.433388 1.047549
-3.0342081 3.4457569 1.0497169
-3.018528 3.451859 1.05115
1.394227 3.441628 1.053332
1.479762 3.4459441 1.049392
-3.0103691 3.4688189 1.0533431
-2.997088 3.46504 1.047305
-3.727169 3.4852149 1.041787
-2.9811521 3.4783919 1.052783
-2.965647 3.4847829 1.051217
0.707412 3.4718289 1.046141
1.480266 3.471427 1.055169
-2.9472411 3.487936 1.040779
0.65071797 3.4963369 1.043642
-3.7204449 3.5049789 1.043492
0.62004602 3.5093689 1.0422651
0.66724497 3.5100091 1.051246
0.68884099 3.5085039 1.054793
-3.735265 3.5203071 1.045193
-2.920681 3.518348 1.045666
-2.899626 3.5254321 1.047124
0.62536103 3.525058 1.048434
0.64503902 3.5246191 1.05194
-3.7436881 3.5375161 1.046958
-2.9141769 3.5319829 1.041724
-2.879205 3.532912 1.046454
-2.8598249 3.5435531 1.050539
-2.8739619 3.5517991 1.050017
-2.8520911 3.5596731 1.053726
-3.748791 3.56162 1.049299
-2.8485811 3.574858 1.051855
-3.7713361 3.588553 1.0523109
-3.7615449 3.5801041 1.051298
-2.8285251 3.5884111 1.055173
-3.7759039 3.6067481 1.054112
-3.7918849 3.6221869 1.0404
-3.803874 3.6394629 1.042313
0.37348399 3.6474321 1.055094
1.345987 3.6484549 1.0420049
-3.812705 3.6595769 1.044427
1.321811 3.663445 1.043558
1.337216 3.6640201 1.0451109
-3.8955121 3.676115 1.042048
-3.8166339 3.6738689 1.045877
0.418796 3.6670461 1.042828
-3.922344 3.691797 1.048996
-3.909636 3.6855819 1.045985
-3.8324959 3.68521 1.04738
-3.8234589 3.6924191 1.047811
1.309391 3.6884019 1.048735
-3.921607 3.7037699 1.051715
-3.837095 3.695632 1.048497
-2.653954 3.716161 1.040459
-3.8490851 3.7345941 1.052546
-2.63007 3.7329171 1.041083
1.385326 3.726645 1.043694
1.397597 3.7396979 1.048458
-2.621479 3.747071 1.043276
-2.6109941 3.743042 1.0409499
-2.5856071 3.7533989 1.046163
1.413654 3.7536981 1.053908
-2.607069 3.763545 1.043969
-2.5949709 3.7619441 1.043732
-2.578711 3.7673481 1.051558
-2.5892251 3.779201 1.05047
-2.567657 3.7831531 1.052959
1.3499939 3.7810531 1.044741
-3.9114089 3.7974589 1.042485
-3.900362 3.7981901 1.0418
-2.539006 3.8002989 1.053755
-3.9182229 3.811527 1.044027
1.350751 3.8014071 1.0486211
-3.9230151 3.8275211 1.045595
0.199527 3.8222311 1.045261
0.376717 3.8297141 1.043268
0.390104 3.823251 1.043906
0.410914 3.8287051 1.049428
0.422333 3.829567 1.051837
1.296733 3.8207681 1.04328
1.306724 3.8258929 1.045882
1.326619 3.8211811 1.048306
1.3397 3.821558 1.050528
1.3507921 3.819927 1.052044
0.36763999 3.8393421 1.044367
0.39882299 3.83163 1.047998
1.317584 3.8337669 1.049129
-3.9435351 3.847481 1.048663
-3.929276 3.849788 1.0477771
1.286267 3.8564279 1.048074
1.292552 3.847476 1.047484
-3.9488211 3.8702321 1.050867
0.26463699 3.8656271 1.041778
0.27658501 3.8634341 1.04343
0.30576301 3.862175 1.048867
-3.946341 3.876791 1.051198
0.27175999 3.8767719 1.046912
-3.964942 3.9011569 1.0546499
-3.955976 3.9001141 1.053829
-2.374254 3.9124391 1.0410759
-2.3652229 3.9282269 1.0451649
-2.350275 3.923882 1.04608
-2.3320069 3.929389 1.0493079
-5.1697969 3.9467871 1.042912
-3.969892 3.946676 1.040681
-3.9543209 3.9428539 1.04342
-5.1851768 3.953728 1.046219
-4.0511131 3.9594409 1.0412281
-5.1839981 3.973901 1.050791
-4.0778742 3.973515 1.047134
-3.9754391 3.971144 1.04812
-5.199398 3.9850349 1.055112
-3.980536 3.9905469 1.050925
-4.0804672 3.996989 1.0533201
-3.989152 4.0001249 1.052621
-0.018621 4.0299349 1.049458
-0.0030730001 4.0357132 1.052951
-4.0130048 4.0452442 1.043992
0.35965899 4.0517111 1.041579
-4.0211821 4.061708 1.046622
0.35982999 4.0669761 1.045802
-4.0509682 4.0754261 1.041345
-4.0347772 4.073503 1.0443701
0.34814501 4.0721488 1.045508
-4.070981 4.1001868 1.046425
-4.0562711 4.0877452 1.043398
0.028163999 4.1002741 1.04229
0.29442599 4.0997272 1.045239
0.324139 4.0987868 1.049324
0.33825999 4.0889258 1.048677
-4.0853748 4.1134162 1.049588
-4.039032 4.10217 1.053055
0.018835999 4.1039281 1.041978
0.046123002 4.109303 1.04794
0.33359799 4.1037402 1.052074
-4.0688519 4.1212559 1.048906
0.059852 4.119947 1.0534379
0.320862 4.117075 1.053884
-4.0630469 4.1358871 1.054713
-4.1641488 4.1600232 1.048609
-4.1481872 4.1468549 1.0435129
-4.0819769 4.1472778 1.053642
-4.1631899 4.1752701 1.052231
0.011599 4.1683841 1.044204
0.043751001 4.171699 1.049338
0.065856002 4.1701169 1.044369
0.134526 4.1685228 1.041113
0.150122 4.171236 1.0441051
-4.1090798 4.18889 1.04277
-0.242421 4.1857538 1.050409
0.070269004 4.1886139 1.050081
0.087541997 4.177175 1.042297
0.144914 4.17731 1.04504
0.167528 4.1826701 1.049775
0.179859 4.1844459 1.052042
0.200416 4.1822958 1.05441
-4.107924 4.203248 1.045171
0.086021997 4.1948318 1.052091
0.096433997 4.1983719 1.048975
0.17767601 4.1988182 1.051899
-4.0947871 4.2068839 1.045037
0.061528001 4.2159781 1.051464
0.082989 4.2160249 1.053337
-4.1275048 4.2354751 1.044242
-4.1116672 4.226912 1.0494699
-0.36180201 4.2460208 1.0411201
-0.29818699 4.2479591 1.041012
-4.147027 4.2517838 1.041368
-4.1319652 4.2531128 1.040309
-0.36584899 4.2634459 1.042521
-0.30182701 4.2557259 1.042976
-4.151793 4.2686329 1.045006
-0.38137901 4.2764711 1.043798
-0.26488101 4.2727828 1.053501
-0.151455 4.2690282 1.0411921
-4.163404 4.2939091 1.050022
-4.1560292 4.2835951 1.0480191
-0.39531401 4.2843609 1.041402
-0.36204201 4.280828 1.0509551
-4.1740789 4.3097601 1.0539891
-0.38168201 4.299017 1.051453
-0.226895 4.2970181 1.044552
-0.191129 4.3012819 1.050447
-0.417914 4.3112321 1.043677
-0.214849 4.3136091 1.050405
-0.19500799 4.3187799 1.054395
-0.44278899 4.3326511 1.0438631
-0.44847 4.3512082 1.04784
-0.56713301 4.359509 1.041131
-4.1814899 4.3781071 1.042722
-0.589531 4.3732648 1.0426871
-0.52364701 4.3965521 1.04299
0.025314 4.4099789 1.04706
0.123163 4.4271722 1.043278
0.027217999 4.441627 1.054965
0.160036 4.4427791 1.049348
-0.606094 4.4527102 1.042742
-0.28866601 4.5638499 1.045737
-0.28078201 4.5508509 1.0430779
-0.66860402 4.5797749 1.045815
-0.27091801 4.5659022 1.04801
-0.71482301 4.590466 1.042742
-0.700993 4.5914941 1.044834
-0.68418199 4.5821018 1.044421
-0.67626601 4.5899839 1.04765
-0.65300298 4.5886621 1.0422421
-0.27152601 4.5829 1.052442
-0.68530798 4.6038499 1.050324
-0.64816499 4.6043148 1.046602
-0.73172599 4.6111851 1.046297
-4.1677332 4.6351771 1.041061
-0.67788601 4.6381359 1.043316
-4.1669698 4.6493111 1.0448101
-0.69847 4.650434 1.046718
-4.1604681 4.6615081 1.047969
-4.0645452 4.663353 1.0471621
-4.0371099 4.664784 1.047177
-0.67894 4.655777 1.0416059
-4.1618772 4.6711402 1.050555
-4.138216 4.674098 1.051023
-4.021338 4.6756792 1.049879
-0.68015999 4.6761489 1.047559
-0.66452199 4.6881719 1.041639
-0.64102298 4.692771 1.045385
0.15817399 4.6924601 1.044799
0.15810899 4.7127829 1.049767
0.167327 4.7064629 1.048424
-4.108161 4.7274361 1.041869
-0.44385299 4.7196422 1.053933
0.15218499 4.7262359 1.052925
-4.1506209 4.7391129 1.046168
-4.124505 4.7314529 1.04338
-0.497201 4.7349658 1.040318
-4.4834909 4.7580462 1.043159
-4.4482532 4.7515159 1.041212
-4.158175 4.7600298 1.052495
-4.0635371 4.753253 1.041317
-0.49245399 4.7504091 1.044153
-4.4176288 4.7666869 1.045839
-4.1335649 4.763392 1.052979
-0.49289 4.7627831 1.047125
-4.3751702 4.7891488 1.052688
-4.2041869 4.778264 1.04933
-0.84762102 4.7794271 1.042289
-0.761913 4.7816539 1.0450341
-0.50208199 4.7833881 1.051867
-0.488002 4.7777839 1.050855
-4.3600159 4.8028908 1.041057
-4.181675 4.7986131 1.040323
-4.1181092 4.7991662 1.041754
-4.1017122 4.800962 1.0425251
-0.84606498 4.8007631 1.04741
-0.52262998 4.7955141 1.054289
-0.50697303 4.7938509 1.054266
-4.3478022 4.8065348 1.042218
-4.3293581 4.8150072 1.0448771
-4.1830592 4.814518 1.045205
-4.166667 4.8087168 1.04346
-4.076118 4.8171611 1.047873
-0.84439099 4.8111 1.049914
-4.5532908 4.8226309 1.046123
-4.5234342 4.8300481 1.048532
-4.1709309 4.8332291 1.045727
-4.1435819 4.8240752 1.048228
-4.063961 4.8242531 1.050226
-4.0326271 4.823945 1.047015
-0.52991498 4.8322148 1.040836
-4.553215 4.8375359 1.050635
-4.1463981 4.8361402 1.0420721
-4.126142 4.8409858 1.048893
-4.0398169 4.845212 1.048382
-4.0148029 4.8426342 1.0518219
-0.54322398 4.8434472 1.042973
-4.2953072 4.8523002 1.0433969
-4.1397328 4.8616281 1.050735
-4.1137052 4.8554168 1.049289
-4.0631371 4.8570571 1.0413539
-4.0437889 4.8654032 1.044132
-0.55210501 4.8635449 1.047709
-4.525022 4.8776431 1.044158
-4.5161672 4.8676109 1.041255
-4.498301 4.8804421 1.04597
-4.0830669 4.8744512 1.0417089
-4.0523329 4.877511 1.044468
-0.703004 4.8797822 1.042851
-0.54410303 4.8802338 1.0525759
-4.5619621 4.8950582 1.048411
-4.5209179 4.8895731 1.048105
-4.0652499 4.8872619 1.050074
-4.0383658 4.8869929 1.04398
-3.9937949 4.881763 1.046313
-1.113099 4.8825722 1.053097
-0.791659 4.8915572 1.040622
-0.76530701 4.8916569 1.042231
-0.68116599 4.8937898 1.047859
-0.57483298 4.8881741 1.052804
-4.5559001 4.906292 1.0521899
-4.541811 4.8983068 1.050153
-4.50212 4.901361 1.052516
-4.2246838 4.9006062 1.053736
-4.1128302 4.904808 1.053277
-4.0882268 4.8978481 1.053059
-4.0554528 4.9091239 1.052922
-4.0431042 4.9062228 1.049255
-0.763008 4.9047852 1.045836
-4.1418509 4.9200988 1.0552731
-4.06113 4.914803 1.041208
-0.90720499 4.921525 1.043731
-4.5477748 4.9349198 1.045352
-4.1706042 4.9342461 1.054754
-4.1479311 4.938808 1.0414079
-4.12046 4.933733 1.041539
-4.0933962 4.9355979 1.042277
-4.562892 4.9487901 1.049141
-4.545856 4.9489031 1.047833
-4.1842279 4.943716 1.053098
-4.145072 4.9549079 1.0419461
-4.115972 4.9493651 1.043146
-4.1032791 4.9516988 1.045369
-4.0863218 4.9513988 1.0463001
-0.92727101 4.9491372 1.0475971
-4.592515 4.9650111 1.0530601
-4.5612721 4.9611502 1.050964
-4.202745 4.9670768 1.045383
-4.1495452 4.9674678 1.049773
-4.1264849 4.9623232 1.050565
-4.08148 4.956389 1.051285
-1.063892 4.9643159 1.040967
-0.99376398 4.9636869 1.041729
-0.97122103 4.9615459 1.045586
-0.95469099 4.9569011 1.045969
-0.939735 4.9564219 1.047604
-0.882177 4.9636989 1.0411839
-0.86945701 4.9666839 1.041885
-4.5998449 4.9711251 1.054685
-4.5808411 4.9742188 1.051759
-4.119576 4.9780369 1.0544389
-4.0703402 4.9712062 1.049361
-1.07465 4.9823198 1.04435
-1.057695 4.9775462 1.04638
-1.0393521 4.974122 1.047828
-0.98728299 4.9733472 1.0449899
-0.85404497 4.979847 1.044713
-0.72171903 4.9779449 1.041335
-4.612452 4.9982061 1.042521
-4.5837731 4.9919782 1.0425659
-1.091429 4.988894 1.044211
-1.077071 4.995398 1.048622
-0.83287698 4.992403 1.047446
-0.58363903 4.9869518 1.041001
-4.6020441 5.0151219 1.048763
-4.1835241 5.0082412 1.044246
-1.102852 5.005403 1.0473861
-1.089705 5.0089388 1.051231
-1.054678 5.0008121 1.042104
-0.80273801 5.0104799 1.051376
-0.540537 5.001462 1.044439
-4.1718869 5.018611 1.047971
-1.112612 5.029541 1.0521131
-0.78688699 5.0157399 1.052555
-0.55950701 5.0265541 1.052452
-0.54549098 5.016593 1.0491281
-4.1656542 5.031425 1.052147
-1.124025 5.0427728 1.054598
-0.98066002 5.0494399 1.048527
-4.6731091 5.0748801 1.046288
-4.6572332 5.065897 1.04467
-4.6472998 5.0706282 1.046955
-4.5921941 5.0639868 1.043112
-1.523227 5.07057 1.050175
-1.491472 5.0750241 1.052114
-1.015414 5.061584 1.050547
-0.681867 5.0706911 1.042551
-4.683816 5.0883012 1.049702
-4.67103 5.0823731 1.048829
-4.6525621 5.0898962 1.052662
-4.6315308 5.087749 1.053632
-4.600656 5.0829411 1.047074
-1.5473 5.0889311 1.05295
-1.5379 5.0834432 1.052201
-1.5055521 5.0759492 1.051831
-1.498776 5.086132 1.054062
-1.473583 5.0863128 1.054916
-1.4093421 5.0802979 1.0471931
-4.6908779 5.1046281 1.054292
-4.6744051 5.0954652 1.052705
-4.6040168 5.1005149 1.05056
-0.66080898 5.0983 1.049946
-4.6949 5.119802 1.053575
-4.645443 5.1082511 1.04924
-1.4802279 5.1105151 1.041152
-1.129656 5.1189122 1.041298
-1.1161799 5.1159511 1.04099
-0.69269902 5.1156759 1.053324
-0.668091 5.1179538 1.054581
-5.1387529 5.1275291 1.043656
-5.1132679 5.1220212 1.04392
-4.6741581 5.1230249 1.051092
-4.6596098 5.1281438 1.053859
-1.135757 5.1314578 1.044157
-5.1244831 5.1430259 1.049485
-1.144161 5.1419182 1.046437
-5.14854 5.1615438 1.0532759
-5.138689 5.1513791 1.050941
-1.153475 5.1525431 1.048725
-4.6156201 5.1706352 1.045871
-4.5980911 5.1682348 1.047145
-1.575555 5.1781631 1.040737
-1.496165 5.1712909 1.041942
-1.480945 5.1754422 1.0434721
-1.4671659 5.1802301 1.0451
-1.172984 5.1797929 1.0547169
-1.1687419 5.1657181 1.051442
-1.151849 5.1671281 1.0523109
-1.4581341 5.1936231 1.048624
-1.57784 5.2098379 1.0482171
-1.432946 5.2030721 1.051765
-1.587783 5.2228951 1.050965
-1.414176 5.2108588 1.054278
-1.262074 5.2182798 1.041149
-1.597579 5.2336292 1.053162
-1.560012 5.2393098 1.041108
-1.190189 5.2325401 1.044376
-1.1773371 5.2263641 1.0434819
-1.549811 5.248683 1.041778
-1.244476 5.2471972 1.046137
-1.210979 5.2476139 1.046634
-1.200575 5.2422991 1.045877
-1.168275 5.2432971 1.043406
-4.452888 5.2620201 1.05047
-4.4075241 5.2703252 1.054819
-1.565367 5.2584362 1.048575
-1.200757 5.2568488 1.048273
-4.4016309 5.2854519 1.052615
-4.3902922 5.282845 1.041579
-4.3809948 5.2777128 1.042061
-4.3367572 5.2748079 1.0511481
-1.576648 5.2778091 1.052128
-1.558838 5.2724671 1.055148
-1.221656 5.2837911 1.052449
-1.2129329 5.276577 1.051375
-4.3794451 5.2966042 1.04834
-1.650243 5.2945361 1.04268
-1.663651 5.307929 1.044275
-1.2508301 5.308567 1.041258
-4.3610582 5.3158569 1.051149
-3.248904 5.3305569 1.052582
-3.2333491 5.3296089 1.052784
-4.3662672 5.3349628 1.0408551
-1.683911 5.345583 1.049463
-1.673916 5.3341951 1.048061
-4.3797531 5.3564758 1.04458
-4.3596449 5.3554101 1.047965
-4.36903 5.373744 1.05036
-1.689315 5.3668709 1.046188
-4.3753228 5.385262 1.051779
-1.702145 5.3809328 1.050474
-4.1398988 5.3989072 1.045612
-1.711102 5.4010272 1.05495
-1.655332 5.4031382 1.047567
-1.6319931 5.391489 1.0420671
-1.64328 5.418952 1.050939
-4.137681 5.4346571 1.05511
-1.6608959 5.424931 1.054275
-1.671433 5.459085 1.040696
-1.681879 5.4790092 1.046988
-1.659559 5.4705701 1.045772
-1.695586 5.4992619 1.053941
-2.3501339 5.513885 1.042318
-2.3815701 5.5361171 1.044903
-2.370687 5.5322042 1.044783
-3.5612481 5.598001 1.040625
-1.793505 5.5880728 1.040864
-3.5465231 5.6021991 1.042505
-1.813325 5.607935 1.043461
-1.741174 5.6043649 1.041719
-2.3130989 5.6240611 1.045887
-1.82016 5.619936 1.045199
-1.742856 5.6192141 1.045837
-2.3135941 5.6344471 1.052835
-1.828339 5.640913 1.048363
-1.730283 5.63837 1.049293
-1.8339061 5.654202 1.050349
-1.7097501 5.6524801 1.050426
-1.843141 5.6696858 1.0525579
-1.689291 5.6667342 1.051604
-1.776545 5.685472 1.044938
-1.789426 5.7089701 1.0525301
-1.850484 5.8378601 1.045421
-1.837835 5.8298321 1.041634
-1.868753 5.8638549 1.054175
-1.844252 5.857121 1.048937
-1.914758 5.872489 1.045624
-1.863192 5.8937049 1.042877
-2.703938 5.904716 1.050445
-2.680104 5.9112058 1.040974
-1.906781 5.910059 1.049304
-1.88939 5.912271 1.05349
-1.866221 5.9101868 1.045275
-2.681097 5.927587 1.046032
-2.1215219 5.9174852 1.041291
-2.687113 5.9444089 1.04355
-2.6608591 5.93186 1.053677
-2.116914 5.9355359 1.044045
-2.6872871 5.9596519 1.04519
-2.669574 5.9538932 1.041213
-2.7007389 5.967083 1.048483
-2.6340401 5.9724202 1.053292
-2.6259639 5.960638 1.049469
-2.588989 5.9617848 1.0403939
-2.7144129 5.981132 1.052429
-2.7005169 5.986609 1.050426
-2.614219 5.9778719 1.0492181
-2.706676 6.0053539 1.053418
-1.973796 5.9933019 1.0425529
-2.001308 6.0132642 1.043815
-1.989547 6.005754 1.043414
-2.0100031 6.0208411 1.044367
-2.032094 6.0485201 1.046834
-2.01999 6.0392342 1.0462461
-2.0423009 6.0667992 1.048673
-2.0495059 6.0842352 1.050554
-2.0644851 6.1015878 1.052011
-2.076277 6.1161232 1.0532629
-2.0837829 6.131444 1.054842
-4.1542401 6.2032571 1.050269
-4.1408191 6.2113018 1.053185
2.532218 -0.093235001 1.056703
2.5443859 -0.094091997 1.060722
2.5588281 -0.098158002 1.0652519
2.5676489 -0.094001003 1.068573
2.6410379 -0.069895998 1.058862
2.6681349 -0.061960999 1.067894
2.822921 0.039395999 1.057147
2.834024 0.041517999 1.061085
2.838088 0.060182001 1.064767
3.0965569 0.27183801 1.067892
3.1911891 0.28416499 1.068675
3.0782249 0.302302 1.067073
3.1873081 0.29855901 1.069216
3.1756599 0.313106 1.067638
3.0670321 0.32590801 1.067409
3.163965 0.32756999 1.066046
3.1560769 0.341892 1.0655
3.049844 0.35476601 1.0667011
3.1442831 0.35620299 1.063885
3.0516169 0.36617401 1.069177
3.1555791 0.370222 1.068629
3.1379039 0.38448799 1.065401
3.2137539 0.380932 1.06217
3.125967 0.398615 1.063753
3.2014551 0.40537301 1.059881
3.1154909 0.42528799 1.064005
3.1197641 0.41266999 1.063693
3.11498 0.43931499 1.065534
3.187901 0.43412 1.0695651
3.110564 0.45329201 1.0659879
3.0926161 0.46703801 1.06268
3.1689799 0.463085 1.0674109
3.0842559 0.48084101 1.062041
3.0816629 0.49401799 1.06293
3.0828409 0.50797498 1.064966
3.068526 0.52218801 1.062759
3.050313 0.53617299 1.059459
3.0340731 0.54872203 1.056535
3.038909 0.56269002 1.059623
3.03842 0.58268499 1.062012
3.1050341 0.58739001 1.056609
3.0147741 0.60152102 1.057874
2.9978321 0.64171398 1.0583709
3.0672181 0.64261198 1.063337
2.985055 0.65458798 1.056519
2.9799149 0.667898 1.056842
2.9708941 0.68090099 1.056062
3.0449121 0.688824 1.070218
2.9601891 0.70017999 1.055663
2.9354539 0.77170801 1.058486
2.9017029 0.82165301 1.056087
2.901639 0.83581501 1.05805
2.888283 0.85414898 1.056957
2.8747039 0.88579601 1.057719
2.861181 0.89747697 1.055676
2.8553441 0.90944397 1.055795
2.8474569 0.92177302 1.055413
2.9678471 0.94319099 1.060128
2.836735 0.96111202 1.058217
2.932173 0.96115899 1.0555691
2.95015 0.95533299 1.059438
2.822994 0.97242099 1.056116
2.935246 0.978643 1.0653141
2.9278221 0.99332702 1.069783
2.9164889 1.001327 1.069513
2.7979901 1.021857 1.056641
2.595315 1.372689 1.057966
2.580617 1.387768 1.056597
2.691004 1.3994271 1.056667
2.562809 1.409142 1.0555021
2.6950319 1.413031 1.0649101
2.565182 1.429757 1.059721
2.677135 1.4231 1.064391
2.555712 1.4402061 1.059007
2.6586471 1.437194 1.065781
2.536983 1.454073 1.056424
2.5336781 1.478633 1.059878
2.51142 1.504774 1.058589
2.5283511 1.49693 1.061708
2.505254 1.52206 1.060048
2.4984231 1.5464669 1.062637
2.4941161 1.571799 1.066101
2.4299419 1.756677 1.06012
2.446173 1.756653 1.065313
2.5173221 1.757357 1.055981
2.5287509 1.7515889 1.05609
2.4256871 1.770035 1.0619251
2.502336 1.773113 1.060047
2.4325421 1.776409 1.065639
2.4953849 1.7816451 1.062572
2.4728501 1.806136 1.069186
2.3699191 1.873637 1.0689501
2.362927 1.886813 1.069918
2.400279 2.02684 1.056538
2.460371 2.0278499 1.055499
2.3815949 2.052685 1.058802
2.447253 2.0534101 1.059478
2.3696611 2.0742309 1.06125
2.4204669 2.0784669 1.056203
2.4058471 2.095166 1.058725
2.437572 2.098321 1.058321
2.3294339 2.1108379 1.062373
2.353637 2.1156111 1.067022
2.381413 2.114114 1.058656
2.4042971 2.1066549 1.0640039
2.3797669 2.126971 1.0601979
2.3915279 2.130121 1.063573
2.396193 2.1433251 1.066777
2.22837 2.1640201 1.061218
2.254169 2.1569431 1.06323
2.301966 2.1562791 1.067217
2.35708 2.1615801 1.06505
2.3828111 2.1520891 1.066596
2.2034221 2.1701059 1.058918
2.2513289 2.169414 1.068903
2.3618519 2.181479 1.068678
2.2199979 2.2203569 1.057103
2.210393 2.2326391 1.057686
2.2098269 2.245435 1.061033
2.1981759 2.2606089 1.061844
2.1804559 2.2841091 1.063223
2.188412 2.2770309 1.063561
2.181339 2.2930319 1.065959
2.173934 2.3085959 1.068158
2.1632111 2.325485 1.069787
2.082473 2.483391 1.057495
2.064383 2.497323 1.061025
2.0269711 2.5255461 1.068109
2.039438 2.5229721 1.069042
2.0641451 2.515605 1.0698121
2.061888 2.5475171 1.05761
2.0373089 2.5681379 1.057429
2.0588419 2.561759 1.060956
2.0417249 2.5782411 1.0614541
2.0291369 2.589705 1.061641
2.044081 2.5996439 1.068249
2.019922 2.6068299 1.064324
2.0304289 2.6083131 1.067371
2.0118189 2.627198 1.068248
-3.3820119 2.634619 1.055724
-3.524487 2.659725 1.056354
-3.3980401 2.6600039 1.057034
-3.538482 2.663955 1.056612
-3.408673 2.6749649 1.057802
-3.5163851 2.6822109 1.057656
-3.5078471 2.6887519 1.058042
-3.418165 2.6840489 1.058242
-3.4325161 2.690701 1.0585099
-3.4964731 2.711535 1.059386
-3.478807 2.7068169 1.05917
-3.463367 2.7350869 1.0608881
-3.4492731 2.7252669 1.060402
1.970161 2.774503 1.055595
1.957633 2.7895629 1.057199
1.94572 2.795681 1.056415
1.951932 2.8074 1.061035
1.92865 2.8129749 1.057704
1.942868 2.8125269 1.060573
1.926369 2.8394101 1.064701
1.9357229 2.8301649 1.064054
1.9144059 2.845257 1.063839
1.92317 2.8451991 1.065666
1.829982 2.866312 1.0616339
1.909017 2.8680561 1.069165
1.91998 2.857327 1.0684299
1.809449 2.8786311 1.064356
1.825557 2.881701 1.068022
1.892398 2.8755741 1.067804
1.7976201 2.8930199 1.069258
1.91624 2.8952539 1.055395
1.913214 2.903439 1.056896
1.896859 2.9172471 1.057292
1.884272 2.93943 1.060539
1.863018 2.955564 1.060605
1.855857 2.963999 1.061393
1.862698 2.974323 1.06533
1.857991 2.989625 1.068345
1.841148 3.0025599 1.0684479
1.832091 3.014632 1.0698169
1.860208 3.0175869 1.0553499
1.851015 3.0296421 1.05687
1.84053 3.046119 1.059314
1.850529 3.042737 1.060214
1.859393 3.0438449 1.062086
1.825368 3.061794 1.060707
1.8328789 3.051059 1.0592411
1.8072701 3.074455 1.06078
1.8219039 3.0712011 1.062547
1.553432 3.094969 1.0599411
1.803484 3.093478 1.06507
1.8180619 3.094198 1.0678689
1.531085 3.0989339 1.056479
1.57528 3.1097751 1.06872
1.503535 3.114948 1.055436
1.517015 3.1199579 1.059657
1.505421 3.136086 1.061938
1.633921 3.1811531 1.05735
1.603652 3.2201591 1.0617959
1.597342 3.2390151 1.056085
1.5835741 3.2581811 1.068137
1.588136 3.24949 1.059462
1.585552 3.2730479 1.069129
1.487716 3.2760539 1.055725
1.548969 3.2901039 1.070066
1.573697 3.278584 1.07012
1.489702 3.29423 1.060853
1.673234 3.311316 1.0595469
1.6591949 3.3279359 1.061566
1.643332 3.345614 1.0635951
1.351079 3.375248 1.0555429
1.656076 3.3783469 1.058283
1.338523 3.387325 1.056307
1.645135 3.3877039 1.0590529
1.331883 3.3986599 1.057978
1.3406579 3.403126 1.060752
1.351335 3.3961799 1.060954
1.3697211 3.4013081 1.065678
1.296452 3.4178009 1.056285
1.281449 3.4381249 1.058687
1.269327 3.4549799 1.060733
1.275332 3.446595 1.059711
-3.752142 3.4696519 1.0651439
-3.742975 3.458523 1.064445
1.1875941 3.4608901 1.064196
1.2039469 3.468559 1.069384
1.258334 3.4630661 1.060744
1.2791179 3.4574449 1.063192
1.3856291 3.45608 1.0555741
0.77280301 3.4758611 1.0599051
1.268105 3.471741 1.06479
1.375047 3.470989 1.057667
1.476305 3.478997 1.056198
-3.757355 3.4894271 1.066012
-2.947855 3.4982071 1.059973
1.3605469 3.4868591 1.059474
1.476546 3.489769 1.058642
-3.763967 3.514462 1.067124
-2.929666 3.5081961 1.062143
0.708462 3.506465 1.057813
0.726551 3.511682 1.062964
0.76521498 3.509918 1.069746
1.348043 3.50266 1.06153
1.433907 3.509088 1.055786
1.478456 3.5040021 1.062135
-3.769424 3.5303209 1.067889
-2.919636 3.522048 1.064263
-2.9031489 3.530093 1.066187
0.67215198 3.5298491 1.058731
0.71720701 3.5186689 1.063509
0.73120397 3.5263419 1.068706
0.74270099 3.521601 1.069322
1.352949 3.5185051 1.065888
1.4802819 3.529104 1.068036
1.48545 3.528616 1.068792
-2.894242 3.542634 1.068137
0.65250498 3.5429771 1.059405
0.675143 3.537878 1.06195
0.68937898 3.53163 1.062553
0.71939498 3.5341561 1.069056
1.342317 3.5383241 1.069145
-3.775094 3.5513029 1.068853
-2.8782511 3.5464211 1.0696191
-2.834626 3.560359 1.057152
-3.7860999 3.5680771 1.069917
-2.868336 3.564081 1.066208
-2.8278561 3.577029 1.056826
-2.8046961 3.5800431 1.056895
-2.7811229 3.584264 1.059842
-2.8018479 3.60028 1.05913
-2.7649629 3.6047649 1.063633
0.37476099 3.596432 1.067158
-2.780875 3.6084111 1.0622129
-3.789427 3.6235211 1.056018
-2.7508509 3.6226709 1.069263
0.42053199 3.6238551 1.057662
0.481556 3.6291721 1.05653
0.425046 3.639385 1.061834
-3.8017831 3.652292 1.059029
-3.8104241 3.67242 1.061152
-3.8243051 3.6890509 1.063121
-3.8478191 3.7062819 1.0654989
-3.9290979 3.7186921 1.056151
-3.836915 3.713815 1.061928
-3.9490409 3.7402661 1.063718
-3.9420669 3.72909 1.060205
-3.8498271 3.7385359 1.068588
-3.9440839 3.7527399 1.066079
-3.9526191 3.7598269 1.068826
-3.8736279 3.7679141 1.056511
-3.8622119 3.7567 1.0668139
1.416309 3.764225 1.056895
-2.544816 3.7851779 1.057855
1.430084 3.781502 1.062906
-3.8859689 3.7912879 1.059171
-2.569253 3.7957721 1.0594521
-2.548384 3.8005331 1.058253
1.418816 3.792722 1.0644259
-3.8929541 3.807302 1.060959
-2.5333951 3.8036201 1.061908
-2.5192549 3.8005941 1.0623879
-2.496109 3.8150499 1.066461
0.180819 3.813405 1.0689009
1.421357 3.8144341 1.070235
-3.905489 3.8171201 1.062378
-2.5353019 3.820442 1.055696
-2.5194099 3.819365 1.061417
0.457369 3.825824 1.057375
0.51317298 3.823452 1.067271
1.411696 3.817874 1.069967
-3.9202061 3.839849 1.065156
-3.909744 3.8409109 1.064829
-2.504936 3.832998 1.062783
-2.4841299 3.8349481 1.066925
0.229655 3.8325729 1.055794
0.24939799 3.8439479 1.064386
0.457627 3.843827 1.062685
0.48792601 3.8452549 1.068849
0.50091702 3.837918 1.069171
1.350708 3.8384681 1.05545
0.237303 3.8506739 1.064118
-3.9252081 3.869576 1.068229
0.214698 3.8632679 1.0637
0.46149299 3.8606019 1.068319
-3.9330239 3.8830271 1.0698709
-3.9836791 3.933706 1.058933
-3.9698601 3.921545 1.056726
-3.995054 3.9413791 1.060594
-3.997447 3.9687769 1.063138
-4.006659 3.993819 1.06617
-5.2128811 4.0105848 1.0626431
-5.2005601 4.0032568 1.0595289
0.328237 4.0013099 1.060972
-5.2160721 4.021677 1.065631
-4.1009631 4.013402 1.059301
-4.01477 4.0115972 1.068527
-5.222322 4.0341272 1.069296
-4.10041 4.0302382 1.06356
-4.017683 4.0349712 1.064999
-3.9985161 4.027328 1.056705
-4.104897 4.0429468 1.067215
0.0065040002 4.0414319 1.055658
0.027941 4.047586 1.0600131
-4.022038 4.0609641 1.0624551
0.03528 4.0629659 1.064931
0.060428999 4.0653391 1.068792
0.24031501 4.0692649 1.066965
-4.0284252 4.0770941 1.064975
0.013696 4.083415 1.070092
-4.0335612 4.0940032 1.067541
-4.0524302 4.1164651 1.055757
0.074083999 4.1227279 1.05656
0.31953701 4.128839 1.056935
0.027752999 4.1429772 1.055629
0.087108001 4.1307302 1.06113
0.094328001 4.143033 1.066124
-4.0888162 4.1605659 1.0609879
-4.0637808 4.149231 1.06888
-4.1018682 4.1668491 1.0621541
-4.1740479 4.1899061 1.057117
-4.1183929 4.1867261 1.062934
-4.1080298 4.1902952 1.0640841
-4.0854359 4.1758561 1.061977
-4.129653 4.1992202 1.065961
-4.0911431 4.1913142 1.064386
-0.21268199 4.192565 1.061841
0.19435801 4.1952152 1.0571131
0.25192299 4.196908 1.059545
-4.1908202 4.20575 1.063024
-4.1126571 4.2114072 1.069171
0.13596 4.2096481 1.0643539
0.18648 4.2135229 1.05663
-4.1947179 4.226346 1.06861
-0.23732699 4.2271652 1.063473
0.13861699 4.222023 1.0680881
-4.3361931 4.2776308 1.0575989
-4.142169 4.2667279 1.058266
-4.130713 4.2686958 1.057878
-4.3399048 4.2908459 1.06033
-4.316782 4.2925611 1.058858
-4.1537619 4.2840581 1.06205
-4.1413832 4.2872572 1.061798
-0.23026299 4.2907801 1.064064
-4.300921 4.3010092 1.059204
-4.1610141 4.302598 1.065789
-0.32802001 4.3014288 1.064923
-0.267492 4.3034811 1.062875
-0.139516 4.3051772 1.05838
-4.2707391 4.3180752 1.060068
-4.2578831 4.320272 1.059522
-0.090949997 4.3227038 1.060923
-4.2380762 4.3359442 1.060931
-4.182775 4.3298831 1.058288
-0.40203199 4.3325238 1.05616
-0.38495401 4.3267722 1.0585721
-0.134251 4.3398418 1.061515
-0.085224003 4.3362112 1.06503
-0.030588999 4.3258481 1.067282
-4.210484 4.3470678 1.062592
-4.1924119 4.3538518 1.067459
-0.41788501 4.343792 1.055618
-0.13956299 4.3553228 1.065153
-0.114029 4.3445449 1.064612
-0.038761001 4.3418851 1.064731
-4.2088981 4.3656492 1.069096
-4.1817389 4.367208 1.0625989
-0.424665 4.3626032 1.059376
-0.149483 4.3648381 1.066787
-0.43515199 4.3706532 1.059196
-0.16942599 4.383225 1.06989
-0.149911 4.3778729 1.07023
-0.440943 4.3930392 1.064214
-0.50204301 4.4247169 1.056242
0.067298003 4.4292979 1.057182
0.050287999 4.434701 1.056286
0.066077001 4.456058 1.063502
0.084145002 4.4603491 1.0668809
-0.54236603 4.4617829 1.057387
0.065053001 4.4685311 1.066389
0.074377 4.4675961 1.067371
-0.676489 4.5334101 1.066108
-0.66136402 4.5313702 1.066826
-0.60026699 4.5224199 1.064063
-0.63462102 4.5436058 1.059384
-0.274737 4.602354 1.057279
-0.25955501 4.5957689 1.057014
-0.26488301 4.6149921 1.0615931
-0.29789299 4.6300859 1.062392
-0.249253 4.6286521 1.066744
-4.1696019 4.6919951 1.057354
-4.0146079 4.697453 1.055618
-0.66152602 4.6899819 1.0591249
-0.45138901 4.699708 1.066148
-4.0056171 4.712544 1.059546
-0.463213 4.7096071 1.067678
-0.416372 4.7102051 1.060716
-4.144834 4.717802 1.063207
-4.12012 4.720551 1.0626709
-3.9978559 4.723527 1.062394
-0.40712801 4.7261958 1.065834
-4.4873891 4.7347002 1.056033
-4.469595 4.739079 1.056824
-4.1647019 4.731215 1.068001
-4.1492052 4.7357702 1.068444
-4.1375842 4.7340298 1.0673389
-4.11658 4.7370739 1.06707
-4.0851698 4.7370229 1.0653991
-3.9860311 4.7338638 1.065019
-3.976202 4.7443042 1.067701
-0.51536298 4.7412171 1.058611
-0.48276901 4.7436638 1.0583071
-0.41386101 4.7454152 1.069557
0.145256 4.7392521 1.055953
-4.4354248 4.7595549 1.061752
0.12682299 4.7508078 1.0583659
-4.4806252 4.7625971 1.063743
-4.412539 4.772006 1.064696
-4.177115 4.774488 1.05979
-4.1476431 4.7708988 1.055488
-4.1341052 4.7729888 1.055824
-0.43372199 4.7744808 1.069815
-0.40199599 4.763557 1.06469
0.124291 4.7724371 1.063587
0.137577 4.767633 1.062709
-4.4561849 4.7875371 1.070176
-4.3849602 4.7881088 1.068553
-4.165493 4.7904201 1.0639811
-4.1377912 4.7836089 1.059041
-4.1206169 4.7889428 1.060259
-4.0407658 4.7775612 1.057719
-0.45533699 4.783421 1.070051
0.111008 4.7771292 1.0644341
-4.1925182 4.8004189 1.06103
-4.1641688 4.7997441 1.066557
-4.028759 4.803895 1.0647891
0.095913 4.7986832 1.06935
0.116269 4.7956629 1.069068
-4.3337879 4.8161449 1.060913
-4.16186 4.8136768 1.060111
-4.0802851 4.8061271 1.0644979
-4.0652771 4.8188338 1.067945
-0.83002698 4.820477 1.0630749
-0.51906699 4.8143039 1.0588911
-4.557857 4.8324089 1.065523
-4.536253 4.825933 1.063612
-4.3177438 4.8229098 1.062978
-4.1372442 4.825727 1.063763
-4.0386648 4.825222 1.063383
-4.0267038 4.8345661 1.069694
-4.022069 4.821301 1.069487
-0.84913802 4.8278818 1.063352
-0.80812502 4.8304129 1.0678999
-0.53132802 4.829958 1.0623519
-0.52417099 4.835237 1.063795
-4.1335912 4.8368392 1.06716
-4.0593529 4.841589 1.055477
-4.013998 4.8404679 1.070153
-0.53965998 4.841517 1.064923
-4.5464969 4.8617411 1.057995
-4.0492501 4.8567791 1.0597349
-0.55245399 4.8580189 1.0685641
-0.53559101 4.859581 1.069356
-4.08745 4.875587 1.063082
-4.0741649 4.8751121 1.0656019
-4.057425 4.8682461 1.063506
-4.0210681 4.871182 1.0565701
-3.9981489 4.8718252 1.0572129
-4.5433321 4.888361 1.066057
-4.5158858 4.8923688 1.06743
-4.1268058 4.8814492 1.057657
-4.0401721 4.8863959 1.061787
-4.5735922 4.9029179 1.070266
-4.1603708 4.8957291 1.070163
-4.0734081 4.9093499 1.057412
-4.0412531 4.9069309 1.068202
-1.091374 4.8964081 1.061813
-1.07635 4.907413 1.0682631
-0.60487598 4.907166 1.055985
-0.58453202 4.9050641 1.056659
-4.550447 4.9174709 1.055927
-4.0992579 4.918715 1.0567369
-4.0346618 4.9220572 1.0589941
-1.012169 4.9158869 1.070107
-4.5572629 4.9269419 1.0586801
-4.5384021 4.9310398 1.060653
-4.5209389 4.9289818 1.060627
-4.1859341 4.9261942 1.055881
-4.1539698 4.9339581 1.057464
-4.1342402 4.92906 1.058478
-4.118206 4.930459 1.0606149
-4.5627971 4.9491191 1.0654711
-4.5526872 4.9463201 1.06496
-4.112112 4.9514632 1.067504
-4.093637 4.940949 1.061049
-4.0758781 4.952425 1.065192
-4.0615058 4.9519429 1.062887
-4.5881538 4.961956 1.068573
-4.5646958 4.9623852 1.069573
-4.1432152 4.963964 1.066722
-4.0931301 4.958333 1.070296
-4.5681839 4.9812312 1.055719
-1.495039 4.9830098 1.064885
-0.64821303 4.9706192 1.0701129
-4.6126518 4.992281 1.059508
-4.5889559 4.9907761 1.057583
-0.87538499 4.9987922 1.064045
-4.5995579 5.0055389 1.0603271
-1.0940289 5.0140491 1.0553139
-1.077033 5.013381 1.056121
-4.6184101 5.0216942 1.0570509
-4.6035738 5.0190892 1.069533
-1.557045 5.0157838 1.065305
-1.091477 5.0277648 1.059134
-4.589066 5.037622 1.0569741
-1.103719 5.038548 1.061317
-0.75614202 5.0393362 1.057627
-5.056252 5.0601039 1.062817
-4.5947261 5.0520229 1.067821
-4.584908 5.0590382 1.06415
-4.1666069 5.0475769 1.056945
-1.133342 5.053823 1.056669
-1.120437 5.0540709 1.062683
-0.73771399 5.0522671 1.064182
-5.1219311 5.06389 1.061115
-5.0975342 5.0715842 1.064512
-4.6585259 5.0667672 1.06115
-4.6342311 5.065763 1.062641
-1.149543 5.0734038 1.060324
-1.139254 5.0712638 1.060076
-1.040378 5.0729098 1.057336
-5.1078029 5.0859938 1.068437
-4.6509991 5.0815582 1.066397
-1.45146 5.0903459 1.056407
-1.051378 5.0903692 1.0597481
-1.03022 5.0786419 1.0566781
-5.124825 5.0908561 1.069168
-4.697926 5.097158 1.06779
-4.6662259 5.0947871 1.069428
-1.552521 5.101985 1.0553319
-1.470879 5.095655 1.056841
-1.153863 5.0952468 1.06463
-0.69853199 5.094461 1.069402
-4.6681299 5.1073489 1.056945
-1.567452 5.11444 1.0572439
-1.555688 5.119823 1.058728
-1.456352 5.114769 1.061069
-1.436753 5.1093392 1.0606019
-1.409499 5.1175289 1.06303
-1.173216 5.114285 1.068081
-1.052929 5.1089888 1.065632
-1.5789289 5.1344538 1.060758
-1.5613509 5.1259708 1.059732
-1.419492 5.1236782 1.063949
-1.062444 5.120677 1.070033
-4.7061882 5.1489878 1.0559191
-1.572636 5.1430912 1.062688
-1.558712 5.1491499 1.066277
-1.541593 5.1383619 1.064216
-1.520094 5.147964 1.067948
-1.39171 5.141572 1.06829
-1.368448 5.147748 1.070166
-4.6326489 5.156219 1.05531
-4.6162872 5.16503 1.059944
-1.5846291 5.156189 1.064821
-1.552333 5.1565242 1.068617
-5.1603169 5.1717119 1.055456
-4.6317668 5.172576 1.060585
-4.6001101 5.169785 1.063269
-1.598842 5.1799779 1.068964
-1.590693 5.1661272 1.0665489
-4.5813942 5.18255 1.069406
-1.1810811 5.1978769 1.0588371
-1.555421 5.2172499 1.058265
-1.544813 5.2115788 1.0559601
-1.4019639 5.2240672 1.057868
-1.388315 5.2239041 1.058297
-1.555171 5.2337589 1.063152
-1.373145 5.2329712 1.06099
-1.2060601 5.237844 1.067698
-1.1950051 5.225771 1.065136
-1.606913 5.2465138 1.055886
-1.5729361 5.248405 1.068529
-1.355931 5.2464442 1.0648119
-1.336518 5.251904 1.066781
-1.2245899 5.2460222 1.0690711
-1.621067 5.2636681 1.059441
-1.601267 5.2620568 1.059803
-4.3896718 5.285171 1.0622129
-3.1888471 5.2845058 1.055913
-3.155448 5.2826042 1.058411
-1.6256419 5.2794929 1.063038
-1.610505 5.2731352 1.062096
-4.4014759 5.2931252 1.063822
-3.140238 5.2862072 1.060861
-3.1298759 5.2932272 1.06387
-1.632001 5.2910128 1.065539
-1.588622 5.2951298 1.060932
-4.3763738 5.307652 1.065549
-4.366251 5.3025832 1.063723
-3.1259351 5.304883 1.067652
-3.1026771 5.302422 1.069067
-1.6426179 5.3055658 1.068599
-1.580953 5.301816 1.0652829
-4.3430982 5.3201141 1.0637701
-1.5934809 5.3170118 1.067681
-3.215889 5.3373899 1.0553761
-3.195528 5.3358788 1.055572
-3.168535 5.33919 1.057256
-3.15415 5.3348231 1.056514
-3.1268821 5.3455548 1.0602
-5.2549639 5.3571692 1.06865
-3.243361 5.347363 1.057232
-3.199012 5.348875 1.058944
-3.1892409 5.348309 1.059082
-3.1534541 5.3479538 1.06005
-3.112458 5.3560691 1.063447
-3.088078 5.359601 1.065128
-3.06583 5.357605 1.0652651
-4.345191 5.365777 1.062209
-3.067235 5.3691711 1.068325
-3.0551209 5.374136 1.070026
-1.720601 5.4167199 1.056128
-1.732088 5.4306812 1.057326
-1.737156 5.4407568 1.0598381
-1.669206 5.439383 1.059137
-4.1478858 5.4584422 1.061111
-1.749837 5.4585881 1.061975
-1.688346 5.4600148 1.066731
-4.1511021 5.4738631 1.065097
-1.765839 5.479785 1.064198
-1.755126 5.4712439 1.0628591
-1.68214 5.4726481 1.06971
-4.165 5.4902239 1.069037
-1.769801 5.5021162 1.068549
-1.700816 5.508709 1.057933
-1.706081 5.5236721 1.06427
-1.7167701 5.5352082 1.065333
-2.405025 5.6071229 1.063706
-4.8608789 5.6583462 1.066918
-4.8339291 5.6608691 1.067547
-4.8105659 5.6680021 1.069153
-1.7788121 5.6648712 1.062216
-1.780383 5.684864 1.067573
-1.703426 5.6827598 1.057529
-1.852001 5.69595 1.056551
-1.860629 5.7109179 1.058684
-1.869274 5.7245202 1.060586
-1.8107719 5.7287879 1.057587
-1.792639 5.7279272 1.058049
-1.776155 5.720798 1.055436
-1.885245 5.7488532 1.063954
-1.89224 5.760921 1.065657
-1.875296 5.7563772 1.065594
-2.6668799 5.8510752 1.0684659
-2.650995 5.852962 1.070093
-2.0124011 5.8803611 1.059615
-2.0122819 5.905407 1.065659
-1.99454 5.907249 1.067206
-1.932755 5.903985 1.058841
-1.868801 5.9055581 1.063692
-1.872103 5.9181719 1.0670331
-2.6747451 5.9554319 1.060755
-1.919899 5.947628 1.067176
-2.6511409 5.966228 1.056573
-1.897543 5.9686351 1.064901
-1.912207 5.984571 1.068125
-2.735322 5.9983201 1.057893
-2.72205 5.9975119 1.055432
-2.470185 6.0042839 1.0606951
-2.458595 6.0013528 1.058195
-2.751966 6.0076051 1.061715
-2.7306011 6.0106602 1.058228
-2.4939189 6.0204201 1.067201
-2.473419 6.017725 1.06321
-2.707638 6.0242348 1.05834
-2.437947 6.0649762 1.068858
-2.4219489 6.0618019 1.063785
-2.407438 6.057128 1.061197
-2.435483 6.0778298 1.069502
-2.4385691 6.098382 1.069442
-2.0945611 6.150444 1.0567141
-2.137331 6.1681652 1.056612
-2.1081591 6.1611652 1.057353
-2.1235411 6.1895771 1.060174
-4.1197338 6.2128611 1.055316
-4.1146631 6.2277761 1.059029
-4.0463042 6.2266188 1.06453
-4.0296769 6.2241778 1.06539
-4.0911059 6.2333789 1.0622489
-4.0723271 6.2364502 1.064505
-4.0266719 6.2407289 1.06927
2.571908 -0.083305001 1.070901
2.58583 -0.078883 1.075994
2.600899 -0.075998001 1.0813611
2.6916289 -0.046493001 1.0768909
2.7038541 -0.027557001 1.083053
2.854331 0.063178003 1.0705431
2.869323 0.060984999 1.07526
2.8817201 0.061849002 1.079507
2.8899629 0.075295001 1.0839781
3.0459609 0.384206 1.0703779
3.110739 0.55697697 1.084563
3.1104369 0.574247 1.082443
2.931505 0.61601597 1.072741
2.9246349 0.63316298 1.073465
2.9207311 0.64772701 1.074715
2.915221 0.66350001 1.075657
2.912703 0.67671901 1.077139
2.8978081 0.699862 1.076301
2.890501 0.71668798 1.076853
3.0408399 0.72288901 1.076948
3.1272609 0.718427 1.0722719
2.8771679 0.738729 1.076344
3.1048751 0.752473 1.07327
2.8719721 0.75863397 1.078148
3.0063131 0.77633399 1.083778
3.088747 0.78164798 1.074865
2.8539431 0.787866 1.0773799
2.8337009 0.81404197 1.0753469
2.837543 0.82650799 1.078844
3.0637259 0.833206 1.078537
2.8273849 0.85008103 1.0797009
2.8208849 0.86510003 1.0802439
3.0378079 0.86951298 1.079138
2.8095701 0.88361698 1.0798219
2.8056691 0.90087998 1.081648
3.0226829 0.89698398 1.0806791
2.7952931 0.92275298 1.082163
3.005785 0.92547399 1.081991
2.783644 0.940974 1.0815949
2.9981639 0.94642103 1.0841219
2.7687039 0.96141899 1.080339
2.7669251 0.97690499 1.082585
2.758616 0.996916 1.0834841
2.7433219 1.017014 1.0820661
2.9023919 1.0196151 1.073336
2.9120419 1.0112211 1.07276
2.737613 1.030206 1.082592
2.896769 1.040311 1.0815589
2.9082019 1.032468 1.081895
2.733784 1.046526 1.0843379
2.8691871 1.053287 1.077814
2.8838379 1.047091 1.080146
2.7171969 1.079911 1.084987
2.7046471 1.097266 1.084008
2.7016361 1.107621 1.084939
2.665782 1.458683 1.0791219
2.64642 1.467232 1.0774339
2.6320429 1.484051 1.081632
2.46876 1.772218 1.076259
2.455308 1.785862 1.075205
2.438149 1.8008749 1.073294
2.4469399 1.803776 1.076818
2.4916379 1.798785 1.070381
2.422992 1.820043 1.073036
2.4657791 1.814577 1.071667
2.4144859 1.8341759 1.073715
2.4616449 1.824977 1.0759439
2.3979731 1.848546 1.071882
2.445859 1.840765 1.079951
2.460423 1.837369 1.0820251
2.409714 1.85421 1.0775681
2.367774 1.890843 1.072473
2.3819399 1.892188 1.077383
2.362432 1.903035 1.073748
2.3508699 1.914169 1.072758
2.354769 1.923839 1.076418
2.3492291 1.936072 1.077666
2.3538721 1.945263 1.081466
2.3302059 1.967056 1.0792511
2.341145 1.956525 1.080158
2.3327069 1.979329 1.083159
2.3106649 2.00769 1.083186
2.2854869 2.0260351 1.07967
2.274164 2.0602479 1.084787
2.2638121 2.071923 1.084437
2.223526 2.117353 1.083161
2.2362981 2.1082981 1.084955
2.409981 2.1293089 1.072242
2.207814 2.1409531 1.0842659
2.4167299 2.144484 1.0789289
2.314909 2.1654849 1.07104
2.4035039 2.157969 1.0708441
2.410763 2.172641 1.0749151
2.2123661 2.1933279 1.072594
2.299134 2.1888559 1.073295
2.3408029 2.19241 1.070879
2.3940771 2.1927149 1.0768729
2.417968 2.187335 1.07899
2.197212 2.2022791 1.073882
2.3156199 2.1964381 1.077348
2.3591859 2.1975639 1.071774
2.3697841 2.203738 1.0755399
2.3069401 2.2163539 1.0800149
2.3783071 2.2245281 1.080229
2.335794 2.226747 1.073292
2.350014 2.231468 1.077533
2.2326491 2.2657571 1.078517
2.29793 2.261816 1.078347
2.326438 2.260745 1.0790499
2.310832 2.276633 1.079253
2.205744 2.294091 1.080084
2.2952969 2.2928481 1.0795521
2.218574 2.303786 1.084025
2.271945 2.310781 1.078513
2.2053249 2.3270299 1.080166
2.2559719 2.3258591 1.078456
2.166666 2.336678 1.073933
2.151284 2.3530531 1.074105
2.217525 2.34884 1.0752341
2.147568 2.366204 1.076755
2.1861489 2.3746669 1.074254
2.1413381 2.378093 1.076732
2.1520569 2.3813469 1.0804141
2.13151 2.396282 1.080686
2.19087 2.3987401 1.080925
2.1203771 2.4141231 1.082587
2.1474481 2.408757 1.081026
2.173568 2.4258709 1.083415
2.090097 2.4467981 1.08328
2.1575611 2.4491041 1.085292
2.054759 2.5227079 1.071597
2.03161 2.5489621 1.080256
2.03339 2.6210361 1.071813
2.0161059 2.6412129 1.0734119
2.005578 2.6548519 1.0747941
1.992432 2.663636 1.074111
1.995003 2.6729989 1.077504
1.98936 2.6841409 1.079388
1.966858 2.7028229 1.079335
1.981967 2.69717 1.081403
1.948783 2.735111 1.084455
1.964133 2.721415 1.084174
1.893083 2.8854649 1.0707541
1.907845 2.8794119 1.072139
1.875435 2.8994429 1.071017
1.9005899 2.896867 1.075568
1.913627 2.891958 1.076913
1.8855259 2.908355 1.075668
1.906352 2.907424 1.079776
1.795096 2.922914 1.082545
1.883275 2.9281759 1.08083
1.899917 2.928175 1.084321
1.7853529 2.930666 1.0847239
1.864434 2.9437859 1.081321
1.8796231 2.9433849 1.08439
1.82144 3.034075 1.072777
1.83279 3.0255799 1.072759
1.812202 3.0457389 1.074015
1.815825 3.059397 1.078221
1.789907 3.076443 1.077674
1.780458 3.0879469 1.078842
1.773162 3.109509 1.083025
1.792568 3.0977759 1.083692
1.81673 3.1102769 1.071829
1.828341 3.096915 1.070419
1.766479 3.1205921 1.084622
1.824023 3.122241 1.0762579
1.811345 3.1263771 1.0750639
1.822355 3.1269929 1.077199
1.7957931 3.144727 1.077059
1.8069119 3.145838 1.079344
1.786032 3.166086 1.080869
1.80191 3.1667781 1.083902
1.7361 3.200026 1.073887
1.724975 3.2145531 1.075855
1.699361 3.23791 1.078048
1.5833549 3.272579 1.071815
1.694212 3.2622371 1.083074
1.5643311 3.285141 1.0715899
1.582969 3.281132 1.073953
1.6981339 3.280669 1.074321
1.560272 3.294899 1.075497
1.573617 3.303123 1.0779231
1.713394 3.2952011 1.0795701
1.537468 3.3151889 1.0744309
1.550247 3.310879 1.077404
1.559063 3.320189 1.079667
1.703835 3.317709 1.084963
1.499229 3.332334 1.084447
1.535226 3.3307531 1.07803
1.346858 3.342134 1.0716079
1.366753 3.3391371 1.072538
1.38814 3.3394041 1.075024
1.51179 3.3487189 1.078362
1.5229321 3.336432 1.0772409
1.327588 3.363472 1.078541
1.34044 3.360429 1.078666
1.4966331 3.3602569 1.07855
1.519343 3.3552599 1.081431
1.291742 3.379142 1.0812581
1.309685 3.371345 1.079916
1.468575 3.3659599 1.078717
1.497704 3.3707399 1.081442
1.502954 3.3717849 1.08316
1.486232 3.386358 1.0833499
1.240765 3.463001 1.0748841
0.75056797 3.5283771 1.073068
0.75591803 3.538162 1.077334
-2.855531 3.5592959 1.0726039
1.3294441 3.553304 1.070976
-2.8435221 3.5722449 1.074896
-2.8300669 3.5742381 1.076087
0.68827897 3.5661139 1.073768
0.70604002 3.5676401 1.077623
1.3183171 3.567157 1.0727741
-3.7912929 3.582027 1.0706429
-2.81633 3.5841639 1.0711
1.331741 3.5812981 1.077879
-3.805644 3.5955069 1.071805
-3.7953479 3.599884 1.071468
-2.8208041 3.592046 1.078777
-2.8043361 3.596457 1.07461
-2.789767 3.60411 1.074681
1.329705 3.599798 1.081984
-2.7823761 3.6172531 1.0787489
-2.761657 3.6082611 1.070956
1.328204 3.611742 1.084615
-3.8096831 3.6276469 1.0731651
-2.740941 3.6306269 1.077957
-2.7230959 3.6257119 1.078916
0.367506 3.625267 1.079882
-3.8233221 3.6433439 1.074455
-2.7314031 3.645515 1.071602
-2.6997621 3.643635 1.083138
-3.834486 3.657712 1.0756021
-2.7200861 3.6631291 1.074773
-2.699096 3.655138 1.076503
-3.836216 3.6723299 1.076247
