# This PCD file was generated using the MATLAB® pcwrite function
# from Computer Vision Toolbox®.
# .PCD v.7 - Point Cloud Data file format
VERSION .7
FIELDS x y z intensity
SIZE 4 4 4 4
TYPE F F F F
COUNT 1 1 1 1
WIDTH 1277
HEIGHT 1
VIEWPOINT 0 0 0 1 0 0 0
POINTS 1277
DATA ascii
3.196323 2.605741 0.220098 1.000000
1.369343 2.613836 0.227183 17.000000
0.074388 2.628370 0.219709 1.000000
0.436316 2.631627 0.218680 8.000000
2.779140 2.658357 0.219671 1.000000
3.038758 2.663619 0.215034 52.000000
2.766665 2.678846 0.221903 13.000000
2.776301 2.678045 0.222404 12.000000
3.021112 2.679789 0.215235 61.000000
3.035345 2.677583 0.215918 62.500000
3.060907 2.675644 0.217306 16.000000
3.210484 2.677099 0.226478 1.000000
0.409938 2.685443 0.226156 19.000000
0.429304 2.692788 0.227219 24.000000
0.435269 2.696434 0.227745 32.000000
0.470948 2.690039 0.226952 34.000000
0.511609 2.682619 0.226071 3.500000
1.375419 2.684193 0.219282 33.000000
2.760542 2.686682 0.222676 11.000000
2.786464 2.683685 0.223898 7.000000
0.415933 2.700881 0.228325 24.000000
0.456029 2.701974 0.228583 46.000000
1.370980 2.702131 0.222888 31.000000
2.752694 2.704324 0.224807 6.000000
2.764561 2.706947 0.225948 6.000000
1.369690 2.715050 0.225431 31.000000
2.738475 2.722895 0.226690 5.000000
2.744583 2.715281 0.225933 7.000000
3.110134 2.716812 0.223483 9.000000
3.137758 2.734544 0.226531 11.000000
3.165088 2.738762 0.228510 13.000000
2.628048 2.775021 0.228002 1.000000
3.106080 2.789353 0.214663 43.000000
3.123699 2.794456 0.217067 43.000000
3.155994 2.794464 0.220280 8.000000
3.143064 2.807760 0.220720 39.000000
3.152142 2.805325 0.221307 27.500000
2.762192 2.901883 0.217473 9.000000
2.800283 2.943446 0.222998 48.000000
2.808218 2.940491 0.223224 43.000000
2.820638 2.944081 0.224232 37.000000
2.837608 2.954168 0.226023 38.000000
2.855326 2.958853 0.227429 38.000000
2.774352 3.005335 0.214236 15.500000
2.794227 3.006525 0.216011 13.000000
2.808988 3.002064 0.216597 7.000000
2.818991 3.010936 0.218652 2.000000
2.807275 3.015373 0.218306 9.000000
1.247148 3.039177 0.222374 28.000000
1.250839 3.053538 0.224712 29.000000
3.608830 3.117284 0.227298 1.000000
3.615044 3.112283 0.227333 1.000000
2.270574 3.237475 0.217022 1.000000
2.175174 3.262392 0.213934 1.000000
2.207455 3.254406 0.215007 1.000000
2.224924 3.257129 0.216168 1.000000
2.398644 3.255233 0.215209 1.000000
2.164586 3.269741 0.213971 2.000000
2.221044 3.270953 0.217091 1.000000
2.241530 3.281012 0.219015 1.000000
2.254590 3.280849 0.219704 1.000000
2.270221 3.288164 0.221145 1.000000
2.325971 3.293779 0.224622 1.000000
2.350070 3.284827 0.225203 1.000000
2.180881 3.311762 0.219237 29.000000
2.208468 3.311497 0.220622 35.000000
2.284061 3.305645 0.223683 20.000000
2.302184 3.302336 0.224031 1.000000
2.314347 3.304615 0.225368 15.333333
2.352371 3.311802 0.228643 12.000000
2.049983 3.321658 0.214372 3.000000
2.060144 3.323264 0.215065 4.000000
2.074834 3.319105 0.215141 7.000000
2.084655 3.323547 0.216238 9.000000
2.115753 3.323732 0.217740 11.000000
2.139839 3.325305 0.219138 20.000000
2.146739 3.327397 0.219780 21.000000
2.167271 3.325608 0.220547 23.000000
2.191236 3.321602 0.221189 28.000000
2.208529 3.319402 0.221769 44.500000
2.225888 3.321027 0.222916 41.000000
2.239276 3.315693 0.222859 41.500000
2.252894 3.314219 0.223380 44.500000
2.265858 3.318033 0.222724 26.333334
2.301076 3.318688 0.226688 24.500000
2.332152 3.315490 0.227999 17.000000
2.421757 3.323242 0.224310 1.000000
2.021267 3.331553 0.214519 2.000000
2.101202 3.334140 0.218547 10.500000
2.125916 3.336889 0.220131 17.000000
2.133306 3.335078 0.220229 15.000000
2.153619 3.331444 0.220707 23.000000
2.160497 3.337446 0.221917 21.000000
2.174186 3.329584 0.221471 32.000000
1.950173 3.346712 0.213685 1.000000
1.964309 3.344261 0.213915 1.000000
1.978540 3.343715 0.214432 1.000000
2.090312 3.349563 0.220259 10.000000
1.875934 3.367056 0.213681 21.000000
1.877309 3.403303 0.218933 22.000000
1.919896 3.414974 0.222274 1.000000
1.881324 3.425890 0.222328 21.000000
-0.851228 3.441058 0.216041 80.000000
-0.854825 3.470573 0.219049 80.000000
-0.841808 3.482727 0.220468 80.000000
-0.846691 3.505393 0.222758 78.000000
4.133362 3.501124 0.218491 65.000000
4.143567 3.493249 0.218436 38.000000
-0.854155 3.531050 0.225328 80.000000
4.144786 3.529640 0.220408 79.000000
-0.852017 3.546503 0.226962 69.000000
4.125552 3.546728 0.220627 33.000000
4.141658 3.544428 0.221080 60.000000
-0.850246 3.561568 0.228553 78.000000
4.126611 3.565672 0.221666 12.000000
7.234263 3.671662 0.225016 37.000000
7.282352 3.672296 0.226722 40.000000
7.321002 3.669400 0.227926 40.000000
7.036241 3.683852 0.218694 39.000000
7.080441 3.684147 0.220254 45.000000
7.124703 3.684165 0.221802 40.000000
7.167218 3.683052 0.223232 39.000000
7.206162 3.679987 0.224442 40.000000
6.930863 3.694582 0.215523 45.000000
6.978505 3.697382 0.217329 40.000000
7.002875 3.688520 0.217753 39.000000
1.499174 -1.255284 0.240083 3.000000
1.518327 -1.253879 0.241759 9.500000
1.483777 -1.247290 0.237977 1.000000
1.503870 -1.244559 0.239679 8.750000
1.536271 -1.247173 0.242957 14.333333
1.542382 -1.237007 0.242764 11.000000
1.557853 -1.218955 0.242853 10.000000
0.907523 -1.197195 0.237819 1.000000
0.322100 -1.177403 0.237172 1.000000
0.866375 -1.155379 0.228647 44.000000
0.545980 -1.097438 0.238127 100.000000
0.440654 -1.093301 0.228960 100.000000
0.456275 -1.089910 0.229576 100.000000
0.472196 -1.093358 0.231449 100.000000
0.484560 -1.090905 0.231889 100.000000
0.500898 -1.095384 0.234003 100.000000
0.517436 -1.093529 0.235074 100.000000
0.529280 -1.087782 0.235008 100.000000
0.546912 -1.082607 0.235684 100.000000
0.565228 -1.084669 0.237709 100.000000
0.576467 -1.089702 0.239462 100.000000
0.592923 -1.090635 0.241278 100.000000
0.603375 -1.091694 0.242326 100.000000
0.501102 -1.081236 0.231541 100.000000
0.520097 -1.078754 0.232787 100.000000
1.781266 -0.855736 0.242642 65.500000
1.788589 -0.856082 0.243418 68.500000
1.787753 -0.835471 0.242270 71.277779
1.786187 -0.809029 0.240745 72.000000
1.780183 -0.796240 0.239385 69.000000
1.786563 -0.793154 0.239977 73.000000
1.788228 -0.780787 0.239559 71.199997
1.789694 -0.764822 0.238940 70.250000
1.791275 -0.750100 0.238397 71.250000
1.786381 -0.735002 0.237164 72.250000
1.791232 -0.713817 0.236719 79.449997
1.775809 -0.691170 0.233942 85.000000
1.784786 -0.678504 0.234369 81.500000
1.770235 -0.672803 0.232527 89.000000
1.761994 -0.650564 0.230581 81.500000
1.775635 -0.660883 0.232593 83.000000
1.776702 -0.641379 0.231891 78.500000
1.765333 -0.622293 0.229786 82.250000
1.775667 -0.613767 0.230639 81.500000
1.766330 -0.601652 0.229114 83.000000
1.771928 -0.596918 0.229521 87.000000
1.777159 -0.579291 0.229479 86.333328
1.694769 -0.421008 0.237032 9.000000
1.692527 -0.373483 0.229184 10.000000
-0.451772 -0.282530 0.229773 31.000000
-1.188493 -0.271312 0.236850 1.000000
-1.151049 -0.259400 0.229352 1.000000
-1.001122 -0.212030 0.229108 10.000000
1.678680 -0.134257 0.231032 10.000000
-0.573273 0.042230 0.243591 59.000000
-1.068030 0.072538 0.236869 55.000000
-0.989352 0.071716 0.228999 49.000000
-0.569983 0.064474 0.243357 38.000000
-1.090558 0.079516 0.239217 39.000000
-1.038658 0.073230 0.233937 55.000000
-1.007451 0.074804 0.230837 54.000000
1.741538 0.670262 0.228899 92.000000
-0.078216 0.699870 0.239356 47.000000
1.742559 0.698743 0.230406 22.000000
1.756567 0.713096 0.232660 1.000000
-0.373964 0.755171 0.235395 1.000000
0.006398 0.852094 0.229236 12.000000
0.001270 0.866401 0.230162 9.000000
2.252520 0.864553 0.229752 43.000000
2.279908 0.866955 0.238502 56.000000
-0.094682 0.870117 0.243488 1.000000
-0.042637 0.872912 0.236336 1.000000
-0.004206 0.873135 0.231028 2.000000
2.275765 0.871880 0.237324 48.000000
2.282024 0.878010 0.239496 37.333332
2.394428 0.896184 0.241449 100.000000
2.375439 0.900389 0.236292 74.000000
2.400156 0.906704 0.243539 81.000000
2.392165 0.916282 0.241745 43.750000
2.497037 0.947942 0.235435 16.000000
2.515040 0.954138 0.240217 17.000000
2.522890 0.957453 0.242344 15.000000
2.627108 0.998051 0.228773 15.500000
2.644619 1.004167 0.232841 15.000000
2.669921 1.010571 0.238560 12.000000
2.688271 1.019119 0.242985 12.000000
-0.199724 1.079978 0.243321 1.000000
-0.192260 1.088354 0.242886 5.500000
-0.170958 1.095545 0.240363 10.000000
-0.150589 1.102872 0.237994 12.000000
-0.155610 1.114637 0.239666 16.000000
-0.129251 1.121184 0.236388 14.000000
-0.119977 1.130282 0.235800 14.250000
3.788809 1.133829 0.233135 73.000000
-0.104911 1.146820 0.235020 7.500000
-0.087595 1.150680 0.232853 7.000000
3.774392 1.140577 0.232143 96.000000
3.787711 1.149490 0.234101 50.000000
-0.114889 1.164593 0.237992 4.000000
-0.086718 1.167150 0.234158 3.000000
3.808932 1.159057 0.236904 65.000000
-0.099810 1.174142 0.236662 3.000000
-0.071283 1.179158 0.233005 5.000000
3.796061 1.170305 0.236384 82.000000
-0.083590 1.191656 0.235905 9.000000
3.773868 1.184693 0.235147 72.000000
-0.056070 1.205218 0.233380 12.500000
-0.043929 1.211572 0.234212 16.166668
-0.024624 1.204253 0.233880 24.000000
3.768633 1.208354 0.236277 65.500000
3.785647 1.197802 0.237252 63.000000
-0.039732 1.225038 0.234757 22.333334
-0.026385 1.224893 0.235690 23.633333
-0.005981 1.218238 0.236550 26.000000
0.013218 1.222116 0.237314 26.000000
3.755579 1.218728 0.235692 69.000000
-0.051155 1.227693 0.238783 7.000000
-0.036784 1.236505 0.233426 24.000000
-0.022769 1.242216 0.231986 24.000000
-0.011297 1.228634 0.238747 24.666666
0.004010 1.231297 0.239256 23.666666
3.752640 1.236434 0.236650 70.000000
-0.095087 1.246494 0.242868 1.000000
-0.058131 1.247312 0.242456 1.500000
-0.011625 1.248762 0.233984 23.750000
0.006531 1.245688 0.242013 24.500000
0.021630 1.244554 0.241781 25.333334
3.744129 1.249486 0.236721 72.000000
-0.026828 1.264095 0.234746 23.500000
-0.012694 1.269652 0.233301 22.000000
3.726914 1.259233 0.235685 70.500000
-0.009564 1.285300 0.234471 21.666666
-0.001914 1.273297 0.232144 24.000000
3.719430 1.285874 0.236848 74.000000
3.732831 1.275660 0.237460 70.500000
0.006626 1.295172 0.233215 21.000000
3.708389 1.293121 0.236261 78.000000
0.000296 1.311189 0.235819 23.125000
3.708773 1.304447 0.237122 70.000000
3.682515 1.331535 0.236463 76.000000
3.694746 1.317626 0.236673 78.000000
0.008389 1.336176 0.237405 23.250000
3.683939 1.347485 0.237780 78.000000
0.019683 1.348263 0.237174 23.000000
3.663716 1.359662 0.236651 79.000000
-0.043559 1.370966 0.230672 73.333336
0.014630 1.362975 0.239546 22.500000
0.035433 1.370142 0.237476 22.750000
3.654515 1.377230 0.237035 79.000000
-0.057714 1.386307 0.233964 96.000000
-0.047036 1.392100 0.233036 67.000000
3.643924 1.390732 0.236983 82.000000
3.662392 1.378424 0.237913 82.000000
-0.026339 1.401822 0.231114 19.250000
3.635562 1.399252 0.240276 88.500000
3.638387 1.408785 0.237786 81.000000
3.643919 1.421592 0.239307 72.000000
0.069717 1.426993 0.242919 70.000000
0.074008 1.433789 0.242753 93.000000
0.161320 1.435953 0.228864 22.000000
3.619167 1.428461 0.242577 89.500000
3.638471 1.428334 0.239273 42.000000
3.642737 1.437041 0.240360 25.000000
0.066455 1.450772 0.242978 63.500000
0.113502 1.451330 0.236671 96.500000
0.170203 1.443439 0.230041 23.250000
3.609696 1.449747 0.242037 85.000000
3.613989 1.445273 0.242631 95.000000
3.662529 1.449034 0.243252 21.000000
0.083922 1.457569 0.242368 80.333336
0.177238 1.456093 0.232000 25.000000
3.606863 1.459572 0.242131 93.000000
0.091950 1.468884 0.242162 90.000000
0.105893 1.477124 0.241045 100.000000
3.591775 1.473539 0.239953 77.000000
3.602967 1.479326 0.242729 50.000000
0.102979 1.486379 0.242656 100.000000
3.725986 1.491108 0.230972 24.500000
0.187629 1.500031 0.239267 42.500000
3.759130 1.506989 0.237213 24.000000
0.168196 1.518100 0.238297 2.000000
3.759806 1.513732 0.237950 23.000000
3.766275 1.521608 0.239626 26.000000
0.092948 1.552919 0.229896 9.000000
0.087361 1.564152 0.231827 9.000000
0.082413 1.580058 0.234181 9.000000
0.059371 1.600612 0.239455 9.000000
3.776016 1.594651 0.229655 75.000000
0.066867 1.610360 0.239524 8.250000
3.794508 1.603336 0.233526 75.000000
3.811016 1.611836 0.237041 72.000000
3.816764 1.624547 0.239024 56.000000
3.825543 1.620129 0.240200 67.000000
1.046450 1.676946 0.237070 29.000000
1.067645 1.673877 0.231990 40.000000
1.078722 1.674446 0.229804 38.000000
1.034586 1.679587 0.240116 23.000000
1.083961 1.679206 0.229736 40.000000
1.085758 1.711336 0.242053 14.000000
1.104572 1.714349 0.241513 13.166666
1.118430 1.715227 0.240767 13.500000
1.127215 1.718062 0.241030 13.000000
1.146457 1.716991 0.239422 13.916666
1.162363 1.712381 0.236990 15.500000
1.176714 1.717394 0.237750 15.000000
1.209055 1.713625 0.234911 14.500000
1.219473 1.720415 0.236635 15.333333
1.234997 1.716992 0.234911 15.000000
1.250085 1.714520 0.233574 15.000000
1.265298 1.722263 0.235643 15.400000
1.278653 1.711013 0.231609 12.000000
1.293771 1.722191 0.234971 15.000000
1.353736 1.721854 0.234381 15.000000
-0.002778 1.725106 0.230759 6.000000
1.159096 1.728111 0.242141 13.750000
1.178086 1.735454 0.243406 14.000000
1.193066 1.728233 0.240348 16.250000
1.207986 1.731505 0.240697 16.000000
1.222616 1.731594 0.240111 15.500000
1.237427 1.735156 0.240711 15.000000
1.250621 1.729638 0.238479 15.000000
1.280132 1.729649 0.237697 15.250000
1.294398 1.736726 0.239755 15.333333
1.310582 1.729452 0.237120 15.333333
1.325823 1.732573 0.238016 15.250000
1.341072 1.731005 0.237438 13.750000
1.357327 1.736564 0.239320 14.333333
1.371737 1.732351 0.238011 13.250000
1.261469 1.739802 0.241482 15.000000
1.341266 1.744745 0.242021 18.000000
1.356806 1.749312 0.243587 16.000000
1.384663 1.737917 0.240036 15.000000
1.401244 1.739166 0.240744 15.000000
1.411191 1.744590 0.242789 12.000000
1.427699 1.738280 0.241098 100.000000
-0.072989 1.766118 0.242909 1.000000
4.101908 1.759312 0.230804 11.000000
4.122708 1.773226 0.234338 9.000000
4.151077 1.789435 0.238897 9.000000
4.164091 1.801512 0.241433 9.000000
4.088367 1.816726 0.231408 14.000000
4.108802 1.832538 0.235431 15.000000
4.135765 1.846656 0.240214 14.000000
4.153084 1.858473 0.243505 14.000000
4.270018 1.860710 0.233307 10.000000
1.377764 1.885727 0.229965 78.000000
4.308758 1.883594 0.237437 10.000000
1.373366 1.896712 0.233763 64.000000
1.371947 1.912199 0.238465 51.500000
1.377100 1.905351 0.235754 58.500000
4.341672 1.904942 0.241081 10.000000
1.374016 1.923094 0.241358 43.000000
4.361194 1.922244 0.243570 11.000000
1.358765 2.013244 0.231079 30.000000
1.361997 2.008464 0.229457 31.000000
1.352860 2.034679 0.237434 31.000000
1.350627 2.044690 0.240352 55.000000
1.349353 2.056434 0.243638 96.000000
1.369370 2.077300 0.230518 60.000000
1.365271 2.091298 0.234471 71.000000
1.355711 2.107888 0.239849 88.000000
1.367102 2.121067 0.241426 100.000000
4.903275 2.155100 0.243140 54.000000
1.345064 2.166243 0.230531 37.000000
4.878162 2.163924 0.242121 116.000000
1.345358 2.182029 0.234336 36.000000
4.873754 2.179648 0.243193 114.000000
1.346817 2.196169 0.237666 39.000000
1.344653 2.208272 0.240773 35.500000
-0.981041 2.233798 0.228676 73.000000
-0.986809 2.253269 0.230821 99.000000
1.352205 2.253812 0.230685 59.666668
-0.982903 2.270046 0.232084 87.000000
-0.954773 2.273706 0.230540 36.000000
1.345501 2.273852 0.235982 58.000000
1.348794 2.276733 0.236311 58.000000
1.349706 2.285243 0.238189 58.000000
1.345676 2.299722 0.241956 61.000000
1.352114 2.305182 0.242589 58.000000
-0.820526 2.357872 0.232303 87.000000
1.118897 2.377149 0.229369 27.000000
1.125153 2.374913 0.229917 30.000000
1.325171 2.372164 0.232725 55.000000
1.123630 2.393255 0.231311 27.000000
1.318060 2.396987 0.238410 92.000000
1.125969 2.417095 0.233038 25.500000
1.312855 2.418369 0.243265 100.000000
1.356401 2.427794 0.243306 100.000000
1.378340 2.433087 0.243528 100.000000
1.307123 2.475056 0.234459 64.000000
1.307439 2.499751 0.239689 97.000000
1.337036 2.501919 0.238251 94.000000
1.291764 2.507598 0.242396 93.500000
1.313913 2.507744 0.240977 96.000000
1.325953 2.508421 0.240350 100.000000
1.342655 2.510695 0.239795 97.000000
1.355917 2.512797 0.239438 100.000000
1.369106 2.512357 0.238552 100.000000
1.380231 2.517506 0.239023 100.000000
1.395835 2.507913 0.236023 100.000000
1.373863 2.517943 0.239490 100.000000
1.400125 2.518913 0.238198 70.000000
3.452793 2.532430 0.230281 2.500000
1.399139 2.538064 0.242476 34.000000
3.439747 2.544084 0.230357 13.000000
3.436079 2.558203 0.231204 15.000000
-0.917708 2.573668 0.230863 87.000000
3.426316 2.573373 0.231756 9.000000
3.438037 2.571602 0.232346 8.000000
-0.912149 2.582000 0.231674 87.000000
0.495809 2.586853 0.230440 24.000000
0.515583 2.582147 0.229813 64.000000
0.526989 2.585483 0.230667 60.500000
0.545099 2.582067 0.230696 39.333332
0.577263 2.581738 0.231175 6.250000
0.589314 2.587604 0.232183 8.000000
0.616683 2.586234 0.232197 8.500000
3.433348 2.589903 0.233451 1.000000
-0.919837 2.599143 0.233818 87.000000
0.364003 2.606362 0.230051 36.000000
0.487832 2.601418 0.231143 28.250000
0.565217 2.596224 0.231906 13.000000
0.572117 2.593501 0.232357 7.000000
0.661571 2.605662 0.234924 15.000000
0.315633 2.608066 0.229271 21.000000
0.334434 2.614195 0.230292 47.500000
0.349926 2.612020 0.230185 56.000000
0.388998 2.609085 0.230788 11.000000
0.453427 2.608774 0.231660 33.000000
0.513570 2.609506 0.232495 59.000000
0.566017 2.609112 0.233577 13.000000
0.595920 2.607753 0.233475 8.000000
0.604605 2.608212 0.233962 9.500000
0.613747 2.610581 0.234623 11.000000
0.637147 2.612213 0.235055 14.666667
0.649896 2.610168 0.234964 30.333334
-0.925574 2.630542 0.237553 87.750000
0.325417 2.623798 0.231311 45.000000
0.328426 2.636608 0.231882 42.000000
0.343985 2.623438 0.231486 53.000000
0.382085 2.623770 0.231687 33.000000
0.412034 2.630910 0.232412 1.000000
0.454167 2.635302 0.233534 28.500000
0.471358 2.627436 0.233259 67.000000
0.485423 2.629354 0.233926 61.000000
0.505058 2.624813 0.233292 25.000000
0.891186 2.637280 0.243368 28.666666
1.369492 2.628618 0.229946 16.000000
-0.916495 2.651552 0.239752 84.500000
0.442200 2.642177 0.233807 1.000000
0.473070 2.638262 0.234217 67.000000
0.870638 2.642918 0.242902 11.000000
0.415201 2.657486 0.235320 1.000000
0.781840 2.662466 0.242402 53.333332
1.363420 2.659957 0.235947 19.000000
-0.919866 2.672774 0.242282 82.000000
0.445356 2.672800 0.237064 1.000000
3.262775 2.680295 0.229910 1.000000
1.355902 2.694936 0.242665 22.000000
0.442159 2.705245 0.229001 49.000000
0.467734 2.708882 0.229597 22.000000
3.244933 2.698808 0.230254 1.000000
0.399900 2.714309 0.230174 33.000000
3.230064 2.713940 0.230521 1.000000
0.458564 2.738018 0.233675 27.000000
0.464993 2.741737 0.234227 17.000000
0.491346 2.738457 0.233887 7.000000
0.500418 2.736709 0.233686 4.000000
0.512090 2.729564 0.232735 1.000000
1.366472 2.731377 0.228694 31.000000
3.208977 2.734973 0.230873 1.000000
1.366709 2.747387 0.231802 29.000000
3.160333 2.746054 0.228790 15.000000
3.194717 2.757216 0.231737 12.000000
1.357196 2.780441 0.238509 31.000000
2.624708 2.782895 0.229012 1.000000
3.226195 2.776607 0.235149 15.000000
1.351452 2.802031 0.242881 29.000000
3.364227 2.789070 0.229022 1.000000
3.375772 2.793525 0.229196 1.000000
1.356584 2.804887 0.243302 28.000000
2.616346 2.809286 0.229221 1.000000
2.627053 2.826577 0.233179 1.000000
3.207112 2.848074 0.232354 1.000000
3.232416 2.873820 0.238230 1.000000
2.875411 2.966676 0.229223 38.000000
2.900167 2.979646 0.231700 35.500000
2.918123 2.982725 0.232995 29.000000
3.587436 2.997048 0.239790 8.000000
3.586291 3.008727 0.241013 1.000000
1.243654 3.057865 0.240881 19.000000
1.247427 3.080858 0.229251 29.000000
1.253117 3.098372 0.232112 29.000000
1.257283 3.112783 0.234477 29.000000
1.251570 3.138746 0.238822 28.000000
1.252724 3.152641 0.241128 29.000000
2.386494 3.308455 0.230187 9.000000
2.403794 3.310509 0.231530 2.000000
2.325780 3.323920 0.228848 21.000000
2.346095 3.320295 0.229501 16.000000
2.359608 3.315115 0.229546 11.000000
2.377521 3.320325 0.231360 9.000000
2.393993 3.313609 0.231382 6.000000
2.340108 3.328741 0.230370 21.000000
2.367931 3.330224 0.232215 10.000000
2.610446 3.334007 0.232297 1.000000
2.627245 3.362004 0.236325 3.000000
1.882371 3.470047 0.228706 18.000000
1.885943 3.498522 0.232934 14.000000
1.883628 3.517239 0.233791 11.000000
1.887817 3.540738 0.239071 13.000000
-0.838572 3.566703 0.229241 78.000000
1.891178 3.557069 0.238878 7.000000
-0.839354 3.584733 0.231112 71.000000
-0.844906 3.609149 0.233589 76.000000
-0.848528 3.632548 0.235987 76.000000
7.766500 3.641100 0.241984 36.000000
-0.843242 3.645123 0.237376 72.000000
7.486728 3.655815 0.233020 35.000000
7.529634 3.652359 0.234339 39.000000
7.589106 3.655704 0.236565 39.000000
7.633954 3.652427 0.237958 37.000000
7.672915 3.647504 0.239064 34.000000
7.717841 3.643685 0.240430 35.000000
-0.839676 3.658791 0.238858 53.000000
7.365561 3.667826 0.229400 40.000000
7.411999 3.666778 0.230963 39.000000
7.442037 3.658196 0.231586 39.000000
4.449984 3.735610 0.243577 7.000000
4.251659 3.782466 0.237578 45.000000
4.212758 3.836227 0.234629 28.000000
4.227776 3.836826 0.235600 26.000000
4.254086 3.833200 0.236977 21.000000
4.190278 3.844135 0.233792 23.000000
4.205269 3.844856 0.234769 36.000000
4.252954 3.849643 0.238053 25.000000
4.185230 3.855812 0.234297 4.000000
1.649086 3.924776 0.241566 121.000000
2.606890 3.925023 0.239748 103.000000
2.662704 3.927237 0.243336 105.000000
1.624564 3.939049 0.241539 118.500000
1.640154 3.941242 0.242487 122.000000
1.659049 3.928179 0.242339 122.000000
1.669550 3.931514 0.243133 122.000000
2.516250 3.934487 0.235469 100.000000
2.540560 3.940210 0.237497 108.500000
2.566605 3.934419 0.238389 108.000000
2.580353 3.933323 0.239077 103.000000
2.600331 3.942210 0.241220 105.000000
2.618191 3.937222 0.241742 109.000000
2.626935 3.933703 0.241883 103.000000
2.636675 3.936028 0.242718 99.000000
2.654359 3.932830 0.243436 101.000000
2.508145 3.943549 0.235987 82.000000
2.527558 3.947015 0.237481 109.000000
2.555428 3.947123 0.239112 109.000000
2.592144 3.949566 0.241533 109.000000
2.491305 3.957650 0.236553 6.000000
1.553285 -1.238885 0.243937 10.500000
1.563438 -1.236059 0.244714 11.000000
1.581836 -1.232929 0.246248 12.000000
1.591259 -1.227721 0.246757 9.000000
1.629217 -1.217551 0.249720 12.750000
1.584777 -1.213434 0.245069 9.333333
1.590302 -1.209378 0.245291 10.000000
1.610706 -1.215404 0.247750 9.666667
1.650092 -1.203095 0.250732 9.500000
1.676304 -1.215226 0.254219 12.000000
1.709341 -1.203128 0.256657 8.000000
0.794772 -1.192698 0.258249 49.000000
0.826979 -1.194289 0.258168 100.000000
0.855888 -1.194484 0.258020 100.000000
0.867756 -1.193727 0.257876 100.000000
0.896000 -1.195303 0.257988 100.000000
0.908055 -1.196448 0.258113 100.000000
1.615848 -1.196975 0.246907 9.000000
1.634674 -1.201851 0.249109 9.000000
1.668274 -1.196318 0.252057 8.166666
1.686554 -1.196272 0.253876 7.000000
1.703783 -1.195321 0.255534 8.000000
0.821174 -1.186311 0.257259 100.000000
0.802216 -1.145041 0.252521 75.000000
0.785898 -1.131405 0.251090 100.000000
0.798157 -1.131221 0.250928 80.000000
0.695445 -1.122857 0.251491 100.000000
0.710369 -1.115664 0.250383 100.000000
0.740258 -1.124287 0.250881 100.000000
0.756172 -1.124559 0.250675 99.000000
0.771741 -1.125654 0.250589 100.000000
0.578503 -1.099309 0.251590 91.000000
0.587314 -1.098781 0.251284 94.000000
0.623398 -1.102509 0.247319 94.000000
0.635944 -1.097878 0.248291 96.625000
0.651025 -1.108224 0.249709 87.000000
0.666502 -1.104392 0.250138 95.000000
0.679671 -1.103698 0.251349 86.916664
0.695417 -1.102690 0.251560 89.250000
0.713194 -1.103914 0.255309 74.833328
0.725206 -1.106525 0.253053 89.166664
0.735680 -1.106611 0.253661 88.099998
0.545438 -1.086843 0.251189 92.500000
0.606727 -1.083289 0.249018 100.000000
0.652951 -1.090700 0.248327 97.187500
0.343785 -1.072322 0.257331 80.000000
0.395198 -1.068512 0.254701 81.000000
0.409838 -1.076196 0.254907 81.000000
0.427330 -1.077393 0.254334 77.500000
0.444813 -1.069562 0.252816 85.000000
0.454455 -1.076620 0.253205 79.000000
0.469902 -1.080928 0.253096 85.000000
0.486315 -1.074554 0.251815 82.000000
0.500350 -1.082003 0.252135 85.000000
0.519203 -1.079173 0.251187 91.000000
0.532462 -1.078741 0.250707 92.500000
0.562552 -1.077102 0.249586 97.000000
0.574096 -1.080036 0.249569 95.500000
0.622884 -1.074992 0.247658 100.000000
1.803180 -1.074880 0.257741 60.666664
0.360843 -1.065824 0.255898 76.000000
1.796180 -1.055505 0.255804 63.000000
1.802932 -1.044379 0.255814 64.000000
1.788946 -1.022467 0.253001 61.000000
1.780592 -1.009052 0.251295 64.000000
1.799928 -1.016889 0.253805 69.000000
1.792920 -1.003118 0.252235 66.666664
1.804924 -0.996883 0.253157 68.000000
1.795904 -0.985675 0.251538 65.000000
1.780370 -0.963171 0.248522 66.000000
1.787847 -0.963663 0.249366 66.333336
1.782167 -0.950219 0.247942 67.000000
1.803022 -0.953266 0.250382 67.000000
1.795616 -0.946268 0.249202 71.333336
1.802580 -0.936999 0.249404 74.000000
1.789729 -0.927528 0.247495 78.000000
1.792603 -0.908204 0.246715 73.000000
1.781234 -0.884303 0.244161 69.000000
1.788578 -0.884682 0.244982 67.000000
1.789863 -0.871862 0.244420 70.333336
-1.051586 -0.527928 0.255524 1.000000
1.698599 -0.520097 0.253335 9.000000
-1.073636 -0.489060 0.256588 1.000000
-1.083085 -0.472083 0.257061 1.000000
-1.089331 -0.460736 0.257381 1.000000
1.696177 -0.466651 0.244510 7.000000
-1.095537 -0.449368 0.257705 1.000000
-1.107525 -0.427138 0.258345 1.000000
-1.067901 -0.391327 0.254209 1.000000
-0.607035 -0.352339 0.248136 84.000000
-0.586470 -0.351905 0.245787 66.000000
-0.601971 -0.337416 0.247421 79.000000
-0.611393 -0.325199 0.248398 83.000000
-0.381255 -0.326841 0.257075 1.000000
-0.363751 -0.324092 0.255036 1.000000
-0.371368 -0.309777 0.255217 2.000000
-0.599175 -0.294564 0.246755 80.000000
-0.382854 -0.289596 0.255594 14.000000
-0.367342 -0.292902 0.254021 8.500000
-0.603214 -0.279379 0.247118 82.000000
-0.381218 -0.274291 0.254754 25.000000
-0.604452 -0.269045 0.247196 84.000000
1.686832 -0.263970 0.257258 35.000000
-0.598712 -0.254821 0.246447 84.000000
-0.367938 -0.251287 0.252299 41.000000
1.688088 -0.243902 0.253432 22.000000
-0.597958 -0.231430 0.246239 85.000000
-0.586197 -0.236338 0.244890 78.000000
-0.418085 -0.228875 0.257080 45.000000
-0.383140 -0.236329 0.253400 50.750000
-0.357322 -0.234946 0.250429 39.000000
-0.599249 -0.220720 0.246343 82.000000
-0.393850 -0.222531 0.254068 55.000000
1.687642 -0.214178 0.247555 15.000000
-1.094752 -0.205214 0.256988 77.750000
-0.594106 -0.200877 0.245666 77.500000
-1.091649 -0.196789 0.256038 96.250000
-1.080166 -0.191463 0.253157 100.000000
-1.100876 -0.182391 0.257551 100.000000
-1.088104 -0.181845 0.254568 100.000000
-0.589375 -0.175819 0.245035 78.500000
-1.088258 -0.164663 0.253989 100.000000
-1.080407 -0.153765 0.251945 100.000000
-0.594488 -0.161736 0.245610 79.000000
-1.093260 -0.146882 0.254605 100.000000
-0.594219 -0.144884 0.245556 78.500000
-1.099963 -0.123575 0.255544 100.000000
-1.088110 -0.136594 0.253077 100.000000
-1.077458 -0.128720 0.250310 100.000000
-0.594073 -0.127636 0.245527 76.000000
-1.086210 -0.121938 0.252223 100.000000
-1.080487 -0.109989 0.250531 100.000000
-0.584307 -0.111646 0.244362 76.000000
-1.087957 -0.105741 0.252270 100.000000
-1.079151 -0.092844 0.249854 100.000000
-0.595062 -0.101187 0.245656 75.500000
-1.088120 -0.089720 0.251997 100.000000
-0.597091 -0.085792 0.245919 76.000000
-1.082999 -0.074951 0.250533 100.000000
-0.583514 -0.068233 0.244321 78.000000
-1.088532 -0.054185 0.251511 100.000000
-1.077861 -0.057728 0.249097 100.000000
-0.586447 -0.052934 0.244715 79.000000
-1.079273 -0.037077 0.249233 100.000000
-0.590938 -0.034136 0.245323 82.000000
-1.087361 -0.026013 0.251006 100.000000
-1.085852 -0.005754 0.250592 100.000000
-1.077340 -0.017307 0.248674 100.000000
-0.581083 -0.008156 0.244241 80.500000
-1.078940 0.001764 0.248971 100.000000
-0.590691 0.003289 0.245473 79.000000
-1.087802 0.013819 0.251092 100.000000
-1.074485 0.026302 0.247974 100.000000
-0.596580 0.021225 0.246304 63.000000
-0.581996 0.017845 0.244497 69.000000
-1.087586 0.029441 0.251100 100.000000
-1.077189 0.042283 0.248830 100.000000
-1.084952 0.048997 0.250583 100.000000
-0.573468 0.052557 0.243692 58.000000
-1.084263 0.065656 0.250714 100.000000
-1.077080 0.059070 0.248937 100.000000
-1.075595 0.077303 0.248861 100.000000
-1.087242 0.089787 0.251730 100.000000
-1.074299 0.091461 0.248804 100.000000
-1.090799 0.114429 0.253076 100.000000
-1.079563 0.103783 0.250230 100.000000
-1.062774 0.118120 0.246670 7.000000
-0.602467 0.142779 0.248209 10.000000
-0.569687 0.146434 0.244156 9.000000
-0.620478 0.156022 0.250641 10.000000
-0.609635 0.150114 0.249201 10.000000
-0.624680 0.169694 0.251363 9.000000
-0.637915 0.185006 0.253261 9.000000
-1.061143 0.206415 0.249412 39.750000
-1.043940 0.202301 0.245449 35.750000
-0.662942 0.201117 0.256686 9.000000
-0.646619 0.197007 0.254551 9.000000
-0.669292 0.218718 0.257797 9.000000
-0.647565 0.217006 0.255008 9.000000
-1.063444 0.225435 0.250873 100.000000
-0.662996 0.230680 0.257213 7.000000
-1.065839 0.245870 0.252422 55.049999
-0.041174 0.365718 0.255449 6.000000
-0.019753 0.386644 0.251526 72.000000
-0.150341 0.399902 0.250616 1.000000
-0.042405 0.395848 0.255094 75.000000
-0.016301 0.394058 0.250821 81.000000
-0.159086 0.405785 0.251650 17.000000
-0.026019 0.411105 0.252139 68.500000
0.001880 0.407244 0.247592 96.000000
-0.180506 0.444819 0.253903 14.000000
-0.150403 0.438190 0.250084 134.000000
-0.008723 0.441227 0.248841 100.000000
0.018149 0.439600 0.244390 99.500000
-0.168708 0.458611 0.252215 3.000000
-0.030262 0.455065 0.255119 47.000000
0.004000 0.460433 0.246492 100.000000
-0.022299 0.471182 0.252384 78.375000
-0.015097 0.465239 0.249645 100.000000
-0.021115 0.489208 0.253911 70.000000
-0.002410 0.489417 0.247317 100.000000
-0.018856 0.495260 0.250063 100.000000
-0.002810 0.503056 0.251079 83.000000
-0.024888 0.520669 0.252299 80.000000
-0.009766 0.512084 0.249727 80.666664
-0.001394 0.517721 0.251002 70.000000
-0.022373 0.536811 0.250567 81.000000
-0.003948 0.532113 0.251585 52.000000
-0.050274 0.551746 0.255383 25.000000
-0.043253 0.545034 0.254157 28.000000
-0.011998 0.539972 0.248791 76.000000
0.004172 0.545840 0.250438 73.000000
-0.042362 0.565155 0.254080 26.000000
0.007584 0.561621 0.250100 95.000000
-0.056660 0.575341 0.256611 25.000000
-0.006777 0.568144 0.252548 76.000000
-0.221463 0.596066 0.258404 62.000000
-0.053562 0.589006 0.256183 24.750000
0.026297 0.595842 0.247573 98.500000
0.027156 0.585843 0.247266 80.000000
-0.058929 0.608637 0.257315 22.500000
0.006343 0.608159 0.251077 100.000000
0.016002 0.603043 0.249392 100.000000
-0.176587 0.618974 0.252400 52.000000
-0.053205 0.618674 0.256439 23.000000
0.020587 0.623395 0.249021 100.000000
-0.158414 0.637846 0.249981 68.500000
-0.013190 0.634842 0.254843 100.000000
0.000834 0.628244 0.252383 100.000000
-0.147724 0.654253 0.248575 76.000000
0.001545 0.656795 0.252892 100.000000
0.014713 0.653167 0.250623 75.000000
-0.150057 0.662338 0.248910 75.000000
-0.030359 0.670473 0.258530 100.000000
-0.015370 0.663308 0.255858 100.000000
-0.137001 0.674428 0.247190 57.000000
-0.012744 0.681734 0.255883 59.000000
2.306998 0.883035 0.247607 32.000000
2.326731 0.887702 0.254057 21.000000
2.405982 0.920733 0.245862 28.000000
2.423656 0.925882 0.251113 22.500000
2.433446 0.928504 0.254013 18.500000
2.543421 0.965867 0.247903 14.500000
2.550233 0.965669 0.249559 15.500000
2.576537 0.976295 0.256689 11.500000
2.724249 1.026212 0.250990 12.000000
2.735720 1.033062 0.253873 12.000000
2.753021 1.040244 0.258001 11.000000
-0.261328 1.076978 0.252021 1.000000
3.771353 1.103650 0.258419 83.000000
3.755591 1.134119 0.256192 84.500000
3.761079 1.147122 0.257828 84.000000
3.758401 1.158643 0.257712 94.000000
3.737962 1.191339 0.254745 90.000000
3.748107 1.220687 0.258163 100.000000
3.734934 1.246302 0.256580 85.500000
-0.101429 1.266169 0.246907 3.000000
0.021733 1.257948 0.244471 25.666666
0.035007 1.259790 0.244843 24.333334
0.049177 1.265679 0.246166 24.583334
3.724173 1.268243 0.255383 85.000000
3.736555 1.259568 0.257564 81.000000
-0.104727 1.284133 0.250306 5.000000
0.053660 1.287479 0.250301 22.333334
0.065610 1.282820 0.249549 19.583332
3.715814 1.281698 0.254302 88.000000
3.727560 1.281203 0.256753 91.000000
-0.108323 1.302074 0.253701 7.000000
0.075943 1.293520 0.251868 18.000000
3.696659 1.298421 0.251131 88.000000
3.708283 1.292709 0.253283 88.000000
0.077350 1.307640 0.254389 20.375000
3.696824 1.309026 0.251735 87.000000
0.089731 1.321347 0.257391 18.166668
3.679338 1.327657 0.249070 94.000000
3.696928 1.319623 0.252336 91.000000
3.661628 1.345869 0.246370 95.000000
3.677334 1.340634 0.249383 93.000000
3.693023 1.335289 0.252390 93.000000
3.666679 1.356522 0.248061 90.000000
-0.029181 1.370519 0.253480 1.000000
3.649216 1.376423 0.245573 93.000000
3.663137 1.368924 0.248055 90.000000
-0.040906 1.377973 0.255600 1.000000
-0.003111 1.385015 0.250642 2.000000
0.020850 1.392089 0.247663 4.000000
3.648842 1.386694 0.246131 93.666664
0.008232 1.394575 0.244102 42.333332
0.019235 1.403390 0.248598 15.000000
3.634245 1.406132 0.244285 100.000000
3.644510 1.396561 0.245837 95.000000
0.008850 1.412147 0.246106 86.500000
0.031523 1.414259 0.247536 28.000000
0.043687 1.420929 0.246232 47.000000
3.632999 1.416510 0.244700 95.666664
-0.017905 1.429474 0.251876 100.000000
0.004192 1.434299 0.249429 100.000000
3.630359 1.436479 0.245478 91.000000
-0.008095 1.437940 0.251561 100.000000
-0.002126 1.447149 0.251874 100.000000
0.020262 1.445948 0.248665 84.000000
0.038854 1.445767 0.246105 76.000000
0.051779 1.447234 0.244527 68.000000
0.069675 1.445535 0.244149 71.500000
3.622190 1.440777 0.244050 93.000000
3.616616 1.460360 0.244239 95.000000
3.680320 1.460757 0.245924 19.000000
0.082724 1.477400 0.244320 85.500000
3.617588 1.470817 0.245189 76.000000
3.698054 1.472611 0.248602 19.000000
0.069907 1.493505 0.247429 55.000000
0.075269 1.485789 0.246119 63.000000
0.096410 1.497006 0.244945 100.000000
3.617998 1.485819 0.246366 41.000000
3.632739 1.494709 0.250124 36.500000
3.715818 1.484206 0.251264 19.000000
3.735379 1.496749 0.254180 20.000000
0.065866 1.504857 0.248818 55.000000
0.109322 1.506002 0.244431 100.000000
3.629910 1.502109 0.250082 37.000000
3.648720 1.509348 0.254581 36.000000
3.745189 1.507236 0.255966 20.000000
0.019170 1.527227 0.257080 58.000000
0.055965 1.516731 0.251087 49.000000
0.107495 1.525674 0.247346 74.333336
0.198455 1.527048 0.243671 72.833328
0.262594 1.520255 0.244351 1.000000
0.018601 1.542024 0.258265 13.000000
0.150104 1.541258 0.243909 8.000000
3.799845 1.534874 0.245692 37.000000
0.039057 1.547679 0.255793 12.000000
0.041842 1.555287 0.255979 13.000000
0.107845 1.547478 0.250314 1.000000
0.139549 1.556690 0.247466 9.000000
0.210499 1.549841 0.247555 67.000000
3.808164 1.543333 0.247693 37.000000
3.826193 1.553498 0.251247 26.000000
0.046975 1.565825 0.256066 21.000000
0.127956 1.569551 0.250807 9.000000
3.828630 1.560911 0.252315 19.000000
3.850362 1.572426 0.256533 19.000000
0.063912 1.574681 0.254362 47.000000
0.087836 1.583145 0.251650 52.500000
0.134817 1.577777 0.251099 9.500000
0.250294 1.575929 0.252560 4.000000
0.253999 1.585768 0.254362 1.000000
0.106306 1.595294 0.250017 58.500000
0.127919 1.588872 0.253594 9.000000
0.221283 1.592658 0.254675 24.000000
0.223327 1.599491 0.255445 21.000000
0.241820 1.589046 0.254464 9.000000
0.113953 1.603350 0.257500 9.000000
0.127813 1.607034 0.247941 63.500000
0.133237 1.617369 0.248031 24.000000
0.233945 1.615655 0.258302 11.250000
0.240953 1.602930 0.256384 9.000000
0.040753 1.632050 0.245361 8.000000
0.122496 1.626063 0.250270 10.000000
0.032953 1.641331 0.247419 7.000000
0.128572 1.639956 0.250593 9.000000
0.132503 1.639578 0.250006 9.000000
3.842906 1.634712 0.244344 32.000000
3.863132 1.644314 0.248599 22.000000
0.021161 1.654712 0.250466 6.500000
0.117060 1.656059 0.253592 8.000000
3.874032 1.655435 0.251366 16.500000
0.007539 1.668716 0.253832 4.000000
0.111965 1.667856 0.255335 9.500000
3.894527 1.668512 0.255951 12.000000
-0.009735 1.680437 0.257427 3.000000
0.107549 1.683309 0.257318 10.000000
1.000927 1.694450 0.250305 4.000000
1.055717 1.719836 0.247128 20.500000
1.067729 1.719787 0.246095 100.000000
1.088380 1.721401 0.244912 13.000000
1.130128 1.731411 0.244982 14.000000
1.172907 1.740389 0.257567 65.666664
1.190798 1.739229 0.258560 61.333332
1.331710 1.750700 0.244024 17.000000
1.370184 1.750672 0.244149 16.333334
1.384888 1.752303 0.244878 15.000000
1.397169 1.750840 0.244597 15.000000
1.417205 1.751282 0.245203 15.000000
1.166755 1.753005 0.258277 44.000000
1.406646 1.761321 0.248333 17.000000
1.423535 1.755098 0.246666 15.000000
1.426911 1.780039 0.255204 15.000000
4.319325 1.805840 0.245131 1.000000
4.184672 1.815883 0.244994 9.000000
4.342185 1.823504 0.246816 1.000000
4.199584 1.828343 0.247772 8.000000
4.229535 1.845803 0.252629 8.000000
-0.424581 1.872438 0.253962 12.000000
4.172160 1.871271 0.247115 14.000000
4.257488 1.862912 0.257243 8.000000
4.187446 1.882840 0.250114 14.000000
-0.455743 1.888256 0.258603 54.000000
4.216126 1.897806 0.255207 13.000000
4.233190 1.910173 0.258515 11.000000
1.372070 1.931064 0.243957 34.000000
1.366642 1.947053 0.249386 25.000000
1.368054 1.953841 0.251196 25.000000
1.362010 1.968194 0.256235 25.000000
4.485127 1.985445 0.256083 100.000000
4.487276 1.997796 0.257096 84.000000
1.354823 2.062152 0.244613 76.500000
1.356108 2.077650 0.248672 37.000000
1.351986 2.084159 0.250850 38.000000
1.361591 2.083242 0.249639 36.000000
1.354556 2.101461 0.255290 43.000000
1.345495 2.122352 0.244814 100.000000
1.353726 2.125327 0.244361 100.000000
1.341037 2.131646 0.247705 100.000000
1.359320 2.142017 0.247659 92.000000
1.363627 2.132663 0.244756 100.000000
1.367307 2.145419 0.247390 90.000000
1.360047 2.169806 0.254447 80.000000
1.362621 2.161550 0.252038 90.000000
1.359670 2.181469 0.257419 86.000000
1.363058 2.178047 0.256101 88.000000
4.881601 2.193312 0.244962 111.000000
4.868613 2.211856 0.245681 103.000000
4.879817 2.204252 0.245804 105.000000
4.861139 2.220742 0.245940 105.000000
1.339235 2.239566 0.248807 37.500000
4.862993 2.232991 0.247164 96.000000
1.338025 2.259811 0.253852 37.500000
1.340174 2.269708 0.256131 39.000000
4.883342 2.263807 0.251363 2.000000
1.344539 2.314043 0.245409 62.000000
1.343704 2.328559 0.248889 54.000000
1.338854 2.344719 0.253160 55.500000
1.346849 2.346234 0.252748 54.000000
1.345407 2.355068 0.254976 56.000000
1.328174 2.425649 0.244113 100.000000
-0.971164 2.435610 0.249419 90.000000
-0.959370 2.442478 0.249462 90.000000
1.313264 2.433743 0.246561 100.000000
1.338820 2.433436 0.245313 100.000000
1.358274 2.441443 0.246196 100.000000
1.366634 2.440825 0.245706 100.000000
-0.956657 2.453328 0.250465 87.000000
1.385593 2.446037 0.246067 100.000000
1.396598 2.444944 0.245390 100.000000
-0.961398 2.466931 0.252201 93.000000
1.395867 2.459412 0.248596 38.000000
-0.969240 2.483232 0.254411 87.000000
-0.969997 2.495789 0.255810 99.000000
1.387788 2.491969 0.256064 27.000000
-0.959647 2.508466 0.256582 90.000000
-0.955976 2.525464 0.258217 90.000000
1.175981 2.546538 0.245144 27.500000
1.170812 2.558781 0.245927 32.500000
1.393122 2.560897 0.247854 33.000000
1.174434 2.588515 0.248163 34.000000
1.385682 2.581633 0.252851 29.000000
1.166205 2.594414 0.248335 33.000000
1.174322 2.605682 0.250050 36.000000
1.381560 2.597506 0.256595 28.000000
1.171708 2.632691 0.251848 33.500000
0.902133 2.644976 0.243950 22.000000
1.166929 2.646792 0.252805 31.000000
0.879997 2.655028 0.244530 22.666666
1.163825 2.665558 0.254198 32.000000
0.779781 2.682281 0.244385 17.000000
-0.923751 2.687972 0.244133 82.000000
0.844844 2.688882 0.246030 5.000000
0.855330 2.694712 0.247348 2.000000
0.873001 2.683412 0.246604 45.500000
1.160763 2.685351 0.255678 28.500000
-0.913468 2.698923 0.245168 81.000000
0.865908 2.709769 0.248605 22.000000
0.965744 2.707199 0.250917 9.000000
1.156554 2.700175 0.256723 27.000000
-0.912566 2.717187 0.247275 78.000000
0.780524 2.714454 0.246544 2.000000
0.851881 2.716692 0.249091 3.000000
1.155678 2.724371 0.258638 26.000000
-0.912968 2.730161 0.248799 82.000000
0.818801 2.742048 0.250083 13.000000
0.849021 2.735583 0.250032 28.000000
0.993536 2.729717 0.254146 41.000000
1.348200 2.731924 0.249765 16.000000
-0.912153 2.748066 0.250879 75.000000
0.849149 2.755744 0.252000 44.500000
-0.901282 2.759348 0.251963 80.000000
0.794526 2.767198 0.251880 2.000000
1.010059 2.771708 0.257533 37.000000
-0.907869 2.777121 0.254201 78.000000
0.842912 2.772630 0.253536 55.000000
-0.911170 2.792573 0.256097 82.000000
0.980219 2.794003 0.258486 57.000000
-0.911208 2.805672 0.257647 84.000000
-0.903249 2.812772 0.258319 76.000000
3.752872 2.993979 0.249023 8.000000
3.767606 2.994368 0.250942 3.500000
3.820307 2.993352 0.254353 3.000000
3.914650 2.995130 0.257881 3.000000
3.745353 2.998595 0.249083 6.000000
3.763675 3.006619 0.252006 3.000000
3.792514 3.007769 0.252851 6.000000
3.842683 3.003292 0.255153 6.000000
3.861389 3.000589 0.256062 7.500000
3.889762 3.001465 0.257267 6.500000
3.907978 2.997616 0.258121 3.000000
3.776807 3.022548 0.253515 1.000000
3.815984 3.017970 0.255341 10.000000
3.764277 3.030094 0.253615 1.000000
1.239565 3.090009 0.245869 23.000000
1.243675 3.099843 0.247354 21.000000
1.248506 3.107806 0.248547 21.000000
1.251426 3.121363 0.250621 21.000000
1.245399 3.161104 0.256805 21.000000
1.251520 3.169748 0.243983 29.000000
1.256713 3.174551 0.244761 27.000000
1.257785 3.188321 0.247055 21.000000
1.257496 3.205801 0.249977 20.000000
1.251381 3.233610 0.254651 19.000000
1.255396 3.242130 0.256066 19.000000
1.260328 3.248868 0.257184 24.000000
2.679099 3.497497 0.254715 6.000000
8.202729 3.602374 0.255091 15.000000
8.200380 3.625470 0.256164 56.000000
7.824458 3.641973 0.244030 36.000000
7.878785 3.640975 0.245856 33.000000
7.912768 3.631476 0.246558 28.000000
7.972763 3.632050 0.248655 30.000000
8.036550 3.633687 0.250935 37.000000
8.087380 3.629858 0.252495 35.000000
8.145717 3.628562 0.254438 33.000000
1.640039 3.663121 0.247429 105.000000
1.683370 3.670674 0.249058 109.000000
1.729541 3.666728 0.249356 106.250000
1.771258 3.662691 0.249603 115.000000
1.801988 3.663413 0.250266 101.000000
1.407799 3.685492 0.247096 93.000000
1.452680 3.686172 0.247694 101.000000
1.503068 3.684992 0.248174 100.000000
1.521183 3.683928 0.248279 105.500000
1.548683 3.680140 0.248185 106.500000
1.565911 3.685659 0.249106 106.000000
1.594224 3.674502 0.248139 103.000000
1.611124 3.680669 0.249151 106.500000
1.655721 3.681832 0.249987 110.500000
1.669376 3.679268 0.249890 109.000000
1.699566 3.680156 0.250500 111.500000
1.713319 3.675378 0.250144 112.000000
1.748853 3.674146 0.250614 114.000000
1.757216 3.674721 0.250835 111.000000
1.788043 3.676596 0.251634 117.500000
1.231745 3.699705 0.247187 91.500000
1.264681 3.701264 0.247642 95.000000
1.283474 3.701964 0.247888 97.000000
1.313040 3.696967 0.247542 101.000000
1.321925 3.699088 0.247885 101.000000
1.331735 3.697314 0.247761 101.000000
1.358846 3.699416 0.248285 92.000000
1.370334 3.689746 0.247218 108.000000
1.382114 3.696354 0.248151 99.000000
1.395216 3.699121 0.248630 103.000000
1.415844 3.691175 0.247883 100.000000
1.430076 3.699545 0.249072 103.500000
1.461523 3.687807 0.248001 101.000000
1.474666 3.692192 0.248700 98.000000
1.488094 3.692528 0.248909 108.000000
1.533283 3.691864 0.249418 99.000000
1.578207 3.694395 0.250358 103.000000
1.623627 3.688198 0.250270 108.000000
1.897270 3.688166 0.255234 8.000000
4.822864 3.696104 0.253100 1.000000
1.119596 3.707157 0.247340 84.000000
1.131488 3.716072 0.248492 83.000000
1.173299 3.703792 0.247265 90.000000
1.190852 3.709932 0.248132 87.000000
1.215889 3.706683 0.247917 90.000000
1.272580 3.707400 0.248458 93.000000
1.294411 3.714919 0.249567 96.000000
1.339269 3.703136 0.248546 97.000000
1.348174 3.705166 0.248883 93.000000
4.762915 3.715338 0.252609 9.000000
4.819501 3.711948 0.254291 9.000000
1.100157 3.720779 0.248884 81.500000
1.144765 3.719109 0.248941 86.000000
1.153859 3.719780 0.249081 82.000000
1.201509 3.723293 0.249834 86.000000
1.240070 3.723555 0.250161 97.000000
1.251100 3.718253 0.249603 95.000000
4.530679 3.728586 0.245732 6.000000
4.546774 3.726479 0.246106 9.000000
4.565745 3.727069 0.246802 1.000000
4.795620 3.726710 0.254682 9.000000
4.818004 3.728619 0.255616 9.000000
4.467380 3.735324 0.244143 6.000000
1.397535 3.759362 0.254780 84.000000
1.483294 3.747979 0.255347 38.000000
1.525087 3.759516 0.258117 1.000000
1.537197 3.748359 0.256881 1.000000
1.033005 3.772038 0.249750 77.000000
1.201618 3.773503 0.252622 84.000000
1.246513 3.771775 0.253231 93.000000
1.260279 3.772721 0.253633 87.000000
1.293565 3.774355 0.254540 82.000000
1.309736 3.769593 0.254220 87.000000
1.326087 3.777420 0.255664 82.000000
1.337483 3.770848 0.254999 87.000000
1.351878 3.770491 0.255273 84.500000
1.368572 3.777090 0.256578 83.000000
1.384498 3.771848 0.256218 82.000000
1.403553 3.769599 0.256360 84.000000
1.416486 3.771560 0.256952 84.000000
1.432389 3.763995 0.256285 87.000000
1.444960 3.769852 0.257427 87.000000
1.457145 3.775527 0.258539 87.000000
1.467934 3.770401 0.258099 76.000000
1.496028 3.763933 0.257939 2.000000
1.038154 3.791941 0.252528 81.500000
1.053116 3.792243 0.252780 82.000000
1.102339 3.784817 0.252501 90.000000
1.115575 3.789473 0.253347 82.000000
1.143689 3.783072 0.252929 84.500000
1.172438 3.786367 0.253874 85.500000
1.190519 3.777620 0.252989 93.000000
1.206852 3.786249 0.254478 87.000000
1.219091 3.780378 0.253895 84.000000
1.229091 3.779994 0.254032 90.000000
1.265275 3.785168 0.255459 84.000000
1.275226 3.784598 0.255583 84.000000
1.315554 3.780058 0.255802 87.000000
1.061298 3.798128 0.253700 87.000000
1.069078 3.803793 0.254588 84.000000
1.083815 3.792954 0.253329 84.000000
1.123355 3.794962 0.254225 87.000000
1.153040 3.796653 0.254953 90.000000
4.451665 3.816754 0.248148 7.000000
4.442989 3.824667 0.248152 9.000000
1.852184 3.912035 0.250646 119.000000
1.861634 3.904790 0.250526 37.000000
2.790070 3.912286 0.249591 95.000000
1.700070 3.925394 0.244138 122.000000
1.750601 3.919170 0.246137 121.000000
1.761194 3.922177 0.246914 122.000000
1.776427 3.924679 0.247882 121.500000
1.791079 3.921165 0.248326 121.000000
1.806521 3.915473 0.248631 121.000000
1.822955 3.923628 0.250130 122.000000
1.832917 3.924454 0.250700 121.000000
1.842214 3.915293 0.250412 122.000000
1.884106 3.917853 0.252741 1.000000
1.894635 3.922418 0.253652 1.000000
1.908923 3.916334 0.253875 2.000000
2.706616 3.914543 0.244642 76.000000
2.762625 3.916638 0.248337 76.000000
2.799527 3.914100 0.250383 99.000000
2.810386 3.919629 0.251664 101.000000
2.821289 3.925114 0.252946 101.000000
2.839352 3.920544 0.253606 99.000000
2.854373 3.922797 0.254810 95.000000
2.868406 3.921136 0.255534 82.000000
1.685351 3.936442 0.244321 122.000000
1.715234 3.928212 0.245123 121.000000
1.731433 3.936875 0.246644 122.000000
1.742406 3.937920 0.247277 123.000000
2.647124 3.942229 0.244016 101.000000
2.673933 3.937237 0.245097 103.000000
2.687876 3.937561 0.245980 104.000000
2.699922 3.928072 0.245692 95.000000
2.779665 3.929016 0.250737 89.000000
2.833198 3.934409 0.254702 97.000000
2.880563 3.932254 0.257510 27.000000
1.070983 -1.253087 0.261054 93.791664
1.080395 -1.252877 0.261931 92.000000
1.342480 -1.248982 0.272410 100.000000
1.101880 -1.234192 0.262801 89.666664
1.183157 -1.246538 0.267367 100.000000
1.219557 -1.235073 0.266807 100.000000
1.234916 -1.238811 0.267688 100.000000
1.265488 -1.244946 0.269339 99.000000
1.300756 -1.245055 0.270460 100.000000
1.312328 -1.238980 0.270074 100.000000
1.358676 -1.237985 0.271611 100.000000
1.369972 -1.243535 0.272752 100.000000
1.385428 -1.244233 0.273453 100.000000
1.397435 -1.234769 0.272734 100.000000
1.848787 -1.240079 0.273345 2.000000
0.909694 -1.219455 0.260906 100.000000
0.921973 -1.218496 0.260795 100.000000
0.953577 -1.221158 0.261190 100.000000
0.965285 -1.222904 0.261451 100.000000
0.994279 -1.220311 0.261296 99.000000
1.005391 -1.221717 0.261550 100.000000
1.041865 -1.219121 0.261565 98.000000
1.057735 -1.219183 0.261753 100.000000
1.072673 -1.231800 0.261951 94.111115
